ncols 100
nrows 100
xllcorner 457900
yllcorner 5716800
cellsize 100
NODATA_value -9999
1641 1639 1634 1630 1627 1624 1623 1624 1621 1619 1612 1606 1603 1601 1602 1593 1600 1595 1595 1597 1597 1587 1576 1575 1581 1585 1583 1579 1580 1580 1578 1576 1575 1573 1572 1570 1567 1565 1563 1561 1560 1560 1559 1560 1563 1564 1563 1563 1562 1561 1560 1559 1557 1555 1551 1549 1557 1560 1570 1581 1590 1587 1601 1612 1622 1632 1646 1658 1669 1683 1695 1707 1717 1733 1749 1746 1727 1704 1674 1651 1640 1631 1616 1642 1629 1625 1649 1659 1665 1675 1689 1704 1724 1756 1783 1748 1744 1785 1796 1842
1643 1638 1633 1633 1630 1628 1629 1629 1624 1617 1616 1606 1602 1604 1597 1586 1589 1584 1586 1587 1592 1588 1578 1571 1573 1575 1576 1577 1577 1577 1576 1573 1572 1571 1570 1569 1566 1564 1562 1560 1560 1559 1558 1558 1560 1562 1561 1562 1560 1559 1558 1558 1557 1556 1553 1551 1548 1548 1552 1560 1563 1566 1579 1584 1593 1606 1619 1631 1641 1658 1674 1692 1700 1716 1735 1748 1740 1729 1697 1665 1645 1628 1608 1628 1613 1637 1646 1654 1657 1667 1676 1681 1692 1710 1723 1726 1722 1783 1854 1888
1647 1637 1630 1631 1629 1630 1632 1625 1623 1619 1616 1607 1602 1600 1591 1587 1582 1579 1576 1573 1575 1576 1578 1574 1570 1573 1574 1575 1575 1574 1573 1572 1571 1569 1568 1566 1566 1562 1561 1560 1560 1559 1557 1558 1557 1560 1560 1560 1558 1558 1557 1557 1557 1555 1553 1552 1551 1550 1547 1545 1545 1551 1549 1551 1560 1577 1588 1598 1600 1616 1643 1660 1671 1684 1700 1716 1722 1724 1709 1677 1653 1630 1605 1603 1611 1620 1628 1632 1632 1639 1644 1647 1656 1669 1690 1708 1761 1797 1829 1851
1641 1634 1627 1629 1629 1628 1628 1623 1620 1617 1612 1603 1597 1591 1587 1588 1584 1577 1570 1571 1569 1569 1572 1572 1570 1574 1573 1572 1572 1572 1571 1570 1570 1567 1566 1565 1563 1561 1561 1561 1561 1559 1558 1557 1556 1556 1557 1556 1556 1556 1556 1554 1555 1553 1552 1552 1551 1551 1550 1550 1549 1546 1546 1544 1543 1544 1556 1572 1574 1591 1614 1620 1634 1649 1643 1671 1669 1686 1669 1662 1656 1631 1605 1593 1609 1605 1605 1608 1608 1612 1618 1625 1634 1646 1683 1726 1753 1753 1745 1741
1637 1634 1628 1626 1628 1625 1625 1622 1617 1610 1608 1599 1589 1581 1578 1579 1579 1573 1572 1572 1570 1570 1570 1569 1569 1570 1571 1570 1571 1570 1569 1569 1568 1566 1566 1564 1561 1565 1566 1566 1566 1558 1556 1555 1553 1553 1552 1554 1554 1554 1553 1552 1552 1552 1552 1552 1551 1550 1549 1549 1548 1548 1546 1546 1546 1545 1541 1542 1550 1562 1580 1592 1598 1617 1619 1630 1636 1657 1656 1641 1639 1627 1607 1588 1605 1601 1597 1599 1602 1605 1616 1625 1629 1625 1639 1681 1690 1662 1653 1665
1633 1636 1632 1622 1627 1623 1624 1621 1613 1605 1599 1592 1586 1574 1572 1572 1572 1573 1573 1572 1571 1570 1570 1569 1569 1569 1569 1568 1569 1567 1566 1567 1566 1564 1562 1561 1562 1573 1575 1578 1576 1573 1570 1565 1566 1562 1562 1567 1566 1559 1556 1553 1550 1552 1552 1552 1551 1550 1550 1548 1547 1547 1546 1546 1546 1545 1544 1544 1542 1543 1549 1565 1574 1586 1591 1599 1608 1619 1630 1626 1623 1617 1602 1586 1596 1598 1601 1600 1603 1607 1613 1620 1621 1616 1611 1619 1626 1616 1604 1606
1631 1629 1627 1622 1625 1621 1620 1617 1610 1596 1589 1578 1577 1574 1575 1574 1574 1575 1573 1572 1572 1572 1570 1569 1569 1569 1568 1566 1566 1566 1567 1566 1565 1562 1560 1560 1563 1575 1581 1588 1591 1589 1593 1592 1594 1592 1588 1583 1582 1575 1568 1565 1555 1549 1545 1549 1549 1550 1550 1548 1547 1546 1546 1546 1546 1545 1545 1544 1543 1543 1544 1548 1554 1563 1571 1580 1587 1593 1609 1616 1614 1601 1583 1609 1616 1612 1609 1605 1606 1607 1608 1611 1612 1609 1606 1597 1596 1596 1587 1588
1628 1626 1622 1620 1617 1621 1621 1616 1596 1588 1581 1573 1575 1576 1575 1575 1574 1573 1573 1572 1571 1571 1570 1568 1567 1565 1565 1567 1567 1568 1571 1572 1569 1566 1567 1571 1587 1600 1600 1600 1608 1609 1609 1608 1607 1618 1609 1601 1596 1589 1584 1580 1571 1558 1560 1561 1552 1547 1548 1549 1549 1547 1546 1545 1545 1544 1544 1544 1543 1544 1545 1549 1552 1555 1557 1561 1566 1567 1573 1573 1572 1578 1595 1633 1646 1639 1628 1619 1612 1609 1609 1606 1604 1602 1601 1602 1598 1588 1590 1592
1620 1622 1618 1617 1619 1612 1595 1594 1594 1592 1575 1577 1577 1576 1575 1575 1574 1572 1572 1571 1570 1570 1569 1567 1569 1569 1571 1580 1582 1583 1583 1584 1585 1593 1598 1603 1610 1617 1612 1607 1614 1630 1622 1620 1619 1625 1621 1625 1617 1602 1593 1593 1588 1577 1580 1586 1573 1554 1547 1545 1546 1546 1546 1546 1545 1543 1543 1543 1543 1543 1541 1543 1551 1553 1555 1557 1560 1561 1571 1593 1593 1596 1613 1635 1656 1664 1659 1649 1633 1625 1621 1616 1612 1607 1609 1609 1604 1595 1592 1597
1614 1615 1613 1595 1584 1584 1581 1581 1584 1585 1577 1578 1577 1576 1576 1574 1571 1572 1571 1571 1569 1571 1572 1572 1580 1586 1586 1591 1594 1592 1594 1601 1611 1617 1624 1629 1633 1633 1634 1626 1615 1640 1634 1632 1630 1628 1630 1640 1638 1629 1612 1606 1605 1596 1582 1588 1597 1588 1567 1554 1549 1546 1545 1544 1545 1544 1543 1542 1541 1542 1541 1543 1550 1550 1552 1555 1558 1561 1574 1593 1605 1608 1613 1632 1663 1688 1694 1683 1670 1658 1648 1639 1635 1630 1636 1638 1636 1621 1613 1627
1598 1588 1584 1584 1581 1580 1580 1580 1579 1579 1579 1578 1578 1577 1573 1571 1576 1577 1573 1572 1575 1580 1585 1586 1590 1600 1606 1605 1605 1607 1616 1623 1630 1635 1640 1642 1641 1640 1643 1635 1623 1651 1644 1644 1644 1641 1640 1645 1649 1651 1644 1627 1620 1614 1604 1593 1599 1612 1609 1590 1578 1563 1550 1545 1545 1544 1543 1542 1542 1542 1542 1540 1543 1550 1550 1552 1555 1555 1560 1576 1590 1596 1608 1628 1661 1705 1727 1718 1707 1694 1682 1674 1668 1662 1668 1677 1686 1679 1668 1685
1586 1584 1583 1583 1583 1582 1581 1580 1578 1577 1576 1576 1574 1571 1572 1580 1590 1591 1587 1587 1593 1595 1597 1601 1608 1615 1617 1618 1619 1628 1642 1647 1651 1653 1654 1652 1652 1654 1656 1646 1640 1664 1659 1659 1658 1655 1652 1652 1651 1655 1661 1653 1636 1625 1619 1611 1605 1611 1624 1622 1613 1604 1586 1564 1552 1545 1543 1542 1541 1541 1541 1540 1539 1543 1550 1548 1551 1551 1551 1561 1575 1583 1597 1613 1642 1696 1744 1754 1738 1724 1712 1708 1708 1702 1704 1714 1727 1748 1748 1751
1585 1584 1584 1583 1582 1582 1581 1580 1578 1577 1576 1576 1579 1579 1586 1598 1601 1606 1608 1608 1608 1611 1619 1625 1628 1630 1635 1638 1636 1644 1665 1668 1670 1672 1675 1674 1673 1671 1669 1657 1647 1671 1675 1670 1668 1666 1664 1664 1660 1660 1663 1665 1658 1640 1630 1625 1617 1615 1630 1641 1638 1628 1610 1590 1580 1562 1548 1543 1542 1541 1541 1540 1541 1539 1542 1548 1547 1547 1548 1548 1556 1571 1575 1587 1614 1658 1719 1773 1780 1755 1741 1739 1744 1750 1754 1754 1760 1785 1812 1834
1584 1584 1583 1581 1580 1581 1579 1576 1576 1581 1582 1582 1592 1603 1609 1612 1612 1621 1626 1625 1628 1636 1644 1647 1646 1646 1650 1663 1661 1662 1681 1689 1692 1697 1703 1704 1703 1696 1687 1680 1663 1669 1686 1678 1676 1675 1676 1676 1672 1669 1665 1666 1669 1662 1647 1641 1634 1626 1636 1652 1656 1642 1629 1619 1606 1594 1574 1555 1543 1541 1541 1540 1539 1540 1540 1541 1544 1545 1546 1545 1544 1546 1554 1570 1585 1621 1674 1732 1787 1804 1784 1771 1777 1791 1798 1794 1797 1817 1839 1859
1582 1581 1578 1582 1584 1578 1581 1594 1597 1595 1599 1601 1612 1624 1629 1631 1634 1635 1639 1648 1660 1667 1668 1666 1667 1670 1671 1682 1686 1682 1688 1712 1727 1733 1741 1738 1726 1713 1714 1692 1652 1676 1698 1686 1686 1691 1690 1688 1683 1679 1674 1670 1671 1674 1668 1658 1649 1640 1650 1663 1662 1659 1653 1643 1634 1618 1603 1590 1574 1549 1538 1539 1540 1540 1539 1537 1540 1541 1542 1541 1540 1536 1536 1549 1567 1587 1634 1681 1737 1806 1828 1815 1809 1819 1824 1826 1830 1838 1841 1858
1588 1596 1611 1629 1625 1612 1622 1621 1617 1617 1619 1625 1634 1643 1649 1656 1659 1653 1659 1679 1693 1694 1691 1689 1694 1698 1687 1693 1708 1704 1705 1738 1781 1792 1786 1767 1742 1733 1709 1676 1667 1693 1716 1713 1716 1716 1710 1705 1700 1694 1689 1684 1679 1677 1679 1669 1661 1662 1667 1677 1684 1685 1679 1662 1630 1618 1616 1599 1590 1589 1565 1540 1538 1538 1538 1537 1538 1538 1537 1537 1537 1537 1533 1535 1544 1556 1587 1637 1691 1749 1811 1845 1844 1844 1845 1849 1852 1848 1852 1871
1616 1629 1643 1655 1651 1652 1651 1640 1634 1634 1643 1650 1653 1662 1671 1675 1673 1675 1688 1704 1714 1711 1708 1717 1728 1726 1711 1717 1730 1731 1732 1751 1799 1817 1797 1780 1761 1760 1715 1684 1701 1721 1749 1752 1754 1749 1738 1730 1722 1715 1708 1701 1693 1686 1684 1678 1677 1679 1676 1684 1696 1699 1697 1694 1673 1639 1618 1598 1592 1584 1569 1562 1549 1536 1537 1537 1537 1537 1537 1535 1535 1536 1535 1533 1532 1538 1551 1584 1635 1683 1747 1820 1863 1869 1864 1863 1867 1866 1874 1893
1639 1654 1659 1665 1668 1674 1664 1651 1648 1655 1670 1676 1676 1683 1690 1690 1689 1699 1715 1724 1728 1728 1729 1746 1753 1740 1739 1746 1756 1760 1758 1765 1796 1821 1814 1796 1791 1765 1708 1710 1745 1756 1781 1801 1801 1789 1775 1761 1747 1736 1728 1720 1711 1703 1695 1688 1688 1694 1692 1691 1699 1707 1710 1709 1704 1693 1683 1649 1615 1603 1592 1578 1566 1553 1541 1536 1536 1536 1537 1536 1535 1535 1534 1533 1532 1532 1539 1552 1573 1617 1685 1760 1823 1865 1876 1876 1878 1884 1898 1917
1645 1657 1667 1677 1681 1675 1664 1663 1674 1687 1698 1698 1702 1708 1709 1712 1720 1731 1742 1743 1740 1744 1757 1769 1766 1759 1767 1757 1774 1804 1805 1810 1821 1830 1825 1812 1802 1756 1709 1733 1783 1811 1827 1845 1847 1832 1813 1793 1774 1760 1748 1737 1727 1720 1708 1700 1697 1703 1711 1706 1704 1711 1716 1713 1718 1725 1733 1714 1675 1644 1617 1602 1586 1581 1569 1551 1538 1533 1534 1535 1535 1535 1533 1533 1533 1531 1534 1549 1559 1573 1617 1685 1740 1807 1855 1865 1873 1877 1882 1911
1649 1664 1680 1686 1677 1675 1677 1681 1695 1710 1717 1720 1725 1732 1736 1739 1748 1763 1767 1761 1756 1768 1789 1783 1784 1790 1800 1807 1815 1853 1873 1870 1861 1848 1840 1831 1823 1768 1723 1752 1810 1847 1857 1865 1869 1863 1849 1828 1805 1786 1768 1752 1742 1731 1720 1714 1711 1706 1716 1721 1714 1714 1720 1722 1724 1734 1750 1749 1726 1692 1660 1637 1618 1598 1584 1576 1567 1547 1538 1535 1533 1535 1534 1533 1533 1532 1530 1538 1557 1565 1575 1602 1655 1722 1771 1801 1826 1845 1840 1878
1676 1680 1682 1679 1675 1677 1684 1694 1710 1725 1738 1745 1744 1749 1760 1764 1765 1778 1786 1781 1783 1799 1805 1793 1808 1828 1853 1886 1850 1878 1922 1910 1893 1880 1876 1867 1854 1787 1740 1770 1826 1862 1869 1871 1875 1879 1883 1869 1842 1816 1791 1772 1757 1740 1733 1730 1728 1719 1716 1725 1724 1719 1722 1727 1730 1740 1757 1757 1745 1726 1705 1680 1652 1624 1612 1605 1583 1566 1555 1542 1534 1534 1534 1534 1533 1533 1530 1525 1542 1567 1569 1568 1594 1640 1690 1739 1771 1784 1797 1852
1666 1672 1678 1679 1681 1687 1699 1716 1733 1746 1755 1757 1757 1761 1775 1782 1780 1789 1805 1805 1822 1818 1799 1809 1848 1909 1935 1943 1903 1927 1948 1929 1921 1912 1898 1881 1872 1803 1752 1785 1849 1883 1881 1873 1882 1891 1894 1893 1875 1847 1825 1798 1768 1749 1746 1747 1740 1731 1723 1729 1733 1727 1724 1729 1732 1738 1754 1762 1751 1738 1728 1713 1688 1658 1639 1625 1608 1591 1572 1554 1539 1533 1534 1534 1533 1532 1532 1529 1530 1541 1558 1569 1580 1595 1629 1686 1728 1743 1758 1809
1683 1693 1696 1698 1700 1710 1724 1740 1755 1763 1768 1775 1783 1780 1790 1796 1794 1809 1827 1839 1857 1829 1815 1861 1919 1981 2002 1990 1956 1960 1965 1950 1941 1934 1920 1896 1873 1801 1780 1825 1876 1899 1900 1892 1892 1898 1896 1898 1895 1875 1855 1825 1787 1766 1757 1758 1750 1742 1733 1734 1739 1736 1728 1729 1734 1736 1746 1755 1747 1739 1737 1729 1710 1689 1664 1641 1623 1603 1588 1563 1538 1533 1534 1534 1531 1531 1530 1531 1529 1523 1533 1550 1562 1576 1604 1627 1658 1673 1711 1764
1693 1703 1715 1721 1727 1739 1751 1762 1775 1787 1795 1808 1812 1809 1809 1816 1819 1830 1852 1876 1868 1847 1866 1956 2008 2012 2001 1990 1983 1976 1967 1957 1949 1935 1909 1884 1875 1836 1786 1828 1884 1908 1919 1915 1909 1910 1908 1903 1904 1900 1880 1851 1817 1788 1769 1761 1756 1748 1742 1741 1742 1742 1735 1730 1736 1739 1738 1745 1742 1738 1738 1738 1724 1706 1692 1674 1652 1625 1599 1576 1548 1531 1532 1533 1532 1532 1531 1531 1529 1529 1522 1524 1534 1553 1583 1608 1617 1621 1660 1709
1712 1723 1734 1744 1756 1770 1780 1790 1802 1817 1827 1835 1833 1837 1831 1846 1852 1856 1873 1882 1879 1877 1945 2030 2034 2017 2007 1995 1985 1977 1969 1963 1957 1942 1919 1901 1872 1840 1802 1838 1888 1913 1925 1933 1936 1930 1923 1911 1904 1906 1901 1880 1848 1813 1782 1766 1758 1753 1751 1749 1748 1744 1742 1733 1735 1742 1740 1737 1736 1735 1736 1734 1733 1721 1705 1698 1689 1674 1649 1612 1576 1547 1530 1531 1533 1531 1530 1529 1529 1530 1528 1525 1521 1530 1553 1581 1591 1606 1629 1659
1733 1743 1756 1771 1785 1798 1811 1823 1838 1845 1847 1851 1854 1858 1857 1871 1885 1892 1903 1900 1907 1937 2034 2049 2029 2023 2014 2002 1997 1992 1989 1978 1965 1948 1927 1909 1883 1846 1825 1872 1908 1919 1927 1938 1950 1955 1948 1928 1909 1905 1908 1902 1878 1843 1803 1779 1764 1759 1757 1756 1751 1748 1747 1739 1736 1744 1743 1736 1733 1732 1735 1733 1732 1725 1718 1711 1710 1714 1705 1676 1641 1591 1541 1523 1529 1531 1530 1530 1530 1530 1530 1528 1524 1523 1533 1549 1575 1595 1612 1623
1750 1759 1768 1788 1809 1825 1835 1845 1852 1860 1866 1873 1879 1881 1883 1887 1918 1935 1941 1928 1921 2011 2078 2060 2039 2033 2025 2022 2024 2017 2006 1982 1968 1954 1937 1914 1879 1837 1848 1894 1925 1937 1939 1942 1955 1966 1962 1947 1927 1912 1909 1914 1899 1870 1844 1788 1768 1761 1758 1758 1753 1749 1747 1741 1740 1743 1743 1736 1733 1735 1735 1733 1732 1730 1731 1731 1737 1738 1732 1723 1712 1666 1612 1564 1525 1526 1531 1532 1532 1529 1529 1527 1528 1527 1524 1535 1557 1572 1592 1594
1770 1788 1803 1817 1828 1835 1842 1853 1864 1877 1890 1900 1904 1903 1905 1923 1950 1993 1977 1984 2015 2085 2090 2072 2060 2051 2047 2045 2040 2037 2020 1995 1979 1963 1944 1921 1881 1869 1860 1897 1932 1955 1961 1961 1968 1976 1974 1962 1943 1925 1916 1916 1908 1889 1880 1830 1788 1769 1761 1759 1754 1750 1745 1742 1742 1741 1742 1738 1731 1733 1735 1733 1731 1733 1734 1743 1751 1761 1765 1761 1754 1738 1715 1660 1582 1524 1520 1526 1530 1528 1527 1526 1526 1528 1526 1529 1545 1557 1565 1585
1796 1804 1817 1825 1831 1840 1852 1868 1888 1905 1920 1931 1933 1926 1929 1973 2005 2055 2067 2106 2141 2120 2098 2082 2075 2071 2063 2053 2041 2038 2029 2007 1993 1967 1936 1913 1884 1906 1891 1900 1941 1970 1984 1983 1989 2000 1995 1979 1956 1939 1928 1919 1912 1902 1888 1884 1827 1785 1768 1760 1755 1752 1749 1749 1744 1739 1740 1737 1731 1731 1732 1733 1733 1735 1739 1750 1769 1785 1794 1795 1787 1784 1780 1767 1711 1624 1552 1520 1523 1526 1527 1526 1526 1526 1527 1530 1537 1545 1557 1573
1805 1811 1819 1829 1841 1855 1872 1894 1917 1940 1962 1977 1974 1961 1953 2007 2071 2131 2162 2160 2138 2118 2107 2094 2093 2089 2076 2065 2051 2034 2029 2012 1997 1966 1939 1920 1920 1935 1910 1909 1946 1982 2006 2012 2017 2022 2014 2000 1980 1958 1941 1930 1919 1909 1897 1888 1867 1813 1777 1762 1754 1753 1751 1751 1750 1742 1738 1737 1734 1730 1730 1736 1735 1738 1740 1748 1765 1788 1811 1819 1810 1807 1810 1825 1820 1763 1656 1552 1524 1522 1523 1525 1525 1524 1527 1526 1532 1535 1541 1556
1804 1811 1824 1841 1858 1875 1896 1916 1949 1984 2020 2050 2041 2023 2004 2031 2112 2186 2180 2153 2135 2123 2116 2112 2107 2100 2087 2071 2052 2033 2023 2007 1976 1965 1952 1936 1946 1949 1923 1924 1956 1992 2026 2044 2049 2051 2043 2025 2005 1979 1957 1951 1936 1918 1907 1894 1896 1849 1789 1765 1755 1752 1749 1751 1752 1747 1738 1733 1730 1730 1727 1729 1733 1735 1742 1747 1757 1776 1804 1825 1828 1826 1834 1852 1870 1855 1783 1643 1553 1531 1523 1525 1524 1524 1527 1524 1524 1527 1536 1543
1800 1814 1833 1853 1874 1900 1926 1948 1988 2037 2099 2130 2138 2111 2096 2100 2162 2198 2181 2157 2144 2135 2128 2120 2111 2106 2091 2074 2048 2030 2014 2012 1988 1970 1961 1963 1975 1962 1936 1955 1967 2005 2039 2069 2083 2093 2085 2057 2026 1994 1975 1965 1957 1929 1913 1899 1893 1881 1813 1775 1759 1751 1750 1750 1752 1748 1740 1734 1732 1730 1726 1726 1729 1732 1738 1745 1753 1768 1788 1813 1835 1846 1860 1886 1910 1917 1884 1792 1652 1572 1546 1532 1523 1524 1526 1524 1524 1523 1545 1548
1782 1811 1836 1858 1883 1908 1933 1951 1979 2022 2074 2121 2167 2168 2169 2181 2209 2207 2184 2167 2156 2146 2137 2127 2116 2113 2092 2070 2048 2044 2037 2025 1997 1982 1979 1993 2006 1970 1951 1986 2006 2026 2059 2086 2115 2138 2118 2086 2052 2022 1994 1971 1960 1939 1923 1910 1890 1891 1847 1794 1769 1752 1747 1747 1749 1748 1741 1732 1731 1728 1724 1723 1722 1731 1736 1744 1753 1762 1774 1796 1820 1845 1870 1904 1939 1967 1955 1909 1802 1666 1586 1556 1527 1524 1526 1525 1525 1524 1530 1545
1765 1797 1834 1855 1884 1907 1919 1927 1942 1971 2013 2076 2136 2152 2171 2186 2206 2214 2196 2177 2172 2161 2148 2136 2124 2111 2094 2071 2057 2058 2056 2042 2022 1992 2000 2032 2022 1976 1978 2029 2041 2054 2084 2108 2128 2144 2121 2097 2075 2054 2013 1977 1959 1947 1933 1922 1901 1885 1872 1820 1786 1756 1748 1746 1743 1746 1741 1734 1728 1724 1724 1720 1718 1720 1730 1739 1749 1761 1768 1775 1803 1832 1862 1901 1934 1974 1999 1969 1902 1788 1660 1582 1549 1528 1524 1521 1521 1521 1523 1538
1787 1776 1801 1831 1864 1896 1907 1913 1920 1941 1982 2040 2098 2122 2147 2160 2178 2203 2213 2205 2199 2186 2167 2148 2134 2122 2105 2081 2083 2093 2088 2060 2030 2009 2040 2055 2026 1993 2022 2068 2075 2078 2094 2113 2121 2121 2103 2088 2071 2058 2021 1982 1966 1954 1941 1931 1913 1893 1879 1846 1799 1773 1755 1747 1742 1740 1736 1733 1727 1722 1721 1718 1712 1717 1724 1732 1742 1758 1772 1768 1786 1817 1848 1888 1927 1957 2003 2034 1961 1891 1769 1637 1584 1546 1528 1522 1520 1520 1524 1521
1818 1789 1812 1836 1856 1883 1903 1915 1923 1943 1960 2006 2069 2108 2120 2127 2148 2176 2212 2235 2239 2218 2189 2161 2138 2128 2117 2104 2121 2123 2113 2073 2041 2035 2074 2078 2030 2018 2066 2093 2094 2093 2069 2080 2092 2088 2080 2071 2056 2047 2030 1992 1976 1961 1948 1938 1922 1903 1882 1855 1823 1794 1765 1752 1747 1744 1738 1732 1729 1722 1718 1715 1712 1711 1716 1725 1734 1750 1763 1766 1772 1798 1836 1881 1919 1944 1987 2052 2037 1963 1871 1721 1628 1573 1542 1527 1520 1521 1522 1525
1835 1816 1801 1841 1874 1907 1922 1935 1951 1976 1976 1996 2059 2079 2072 2086 2108 2150 2195 2242 2269 2253 2215 2182 2150 2131 2123 2118 2122 2124 2117 2089 2049 2073 2109 2092 2034 2050 2099 2125 2119 2113 2086 2061 2061 2061 2056 2048 2039 2033 2025 1999 1982 1966 1953 1943 1929 1912 1890 1872 1846 1810 1778 1761 1755 1747 1742 1737 1730 1723 1719 1713 1710 1709 1710 1719 1726 1737 1750 1764 1775 1795 1825 1870 1903 1928 1972 2032 2075 2019 1944 1795 1688 1609 1563 1541 1523 1521 1522 1523
1852 1831 1815 1846 1877 1924 1970 1990 2010 2046 2027 2008 2038 2052 2072 2097 2107 2128 2181 2232 2277 2287 2246 2209 2170 2142 2131 2132 2138 2139 2123 2097 2066 2118 2124 2101 2048 2081 2125 2156 2145 2120 2105 2081 2059 2055 2051 2045 2029 2014 2005 1990 1976 1968 1958 1946 1931 1918 1900 1882 1858 1826 1795 1775 1765 1756 1747 1736 1730 1724 1717 1712 1707 1705 1705 1709 1717 1727 1739 1756 1777 1803 1819 1852 1887 1917 1967 2028 2062 2056 1977 1866 1749 1655 1597 1564 1536 1521 1521 1522
1875 1854 1830 1855 1886 1948 2021 2044 2062 2097 2090 2056 2057 2082 2104 2140 2151 2139 2177 2231 2286 2321 2281 2233 2189 2157 2146 2161 2168 2159 2139 2110 2102 2144 2148 2114 2064 2117 2155 2191 2165 2125 2105 2085 2071 2057 2054 2045 2026 2012 1998 1983 1973 1964 1959 1947 1933 1920 1907 1891 1871 1834 1800 1790 1772 1758 1747 1737 1729 1723 1717 1713 1707 1703 1703 1701 1708 1716 1725 1740 1770 1797 1818 1838 1868 1901 1963 2015 2047 2069 1998 1920 1807 1703 1632 1587 1553 1524 1521 1520
1902 1872 1836 1862 1905 1969 2023 2051 2069 2085 2109 2117 2123 2129 2132 2166 2196 2178 2180 2240 2297 2342 2310 2253 2203 2178 2177 2196 2201 2185 2152 2125 2152 2176 2174 2129 2103 2151 2189 2207 2179 2137 2107 2082 2067 2053 2049 2049 2027 2017 1997 1983 1972 1961 1956 1947 1929 1914 1890 1880 1857 1823 1796 1796 1777 1760 1745 1737 1730 1723 1717 1713 1707 1703 1700 1698 1699 1704 1712 1723 1748 1779 1806 1820 1848 1898 1955 1992 2032 2067 2042 1968 1872 1761 1679 1619 1572 1533 1521 1520
1929 1883 1852 1869 1900 1956 1991 1997 2014 2047 2085 2104 2115 2133 2167 2201 2233 2222 2198 2242 2305 2349 2333 2275 2231 2214 2218 2241 2243 2212 2169 2173 2193 2210 2195 2155 2145 2188 2213 2212 2180 2140 2104 2078 2061 2058 2055 2048 2034 2012 1997 1983 1972 1959 1951 1946 1924 1905 1875 1859 1818 1821 1846 1824 1796 1774 1757 1740 1733 1723 1718 1712 1705 1702 1699 1697 1695 1695 1700 1711 1731 1762 1784 1800 1838 1892 1942 1974 2011 2056 2077 2007 1936 1836 1751 1671 1594 1554 1529 1519
1940 1892 1867 1885 1906 1917 1950 1988 2011 2019 2042 2067 2082 2112 2168 2223 2260 2272 2237 2245 2311 2365 2363 2303 2275 2269 2275 2294 2283 2245 2218 2228 2242 2248 2227 2190 2184 2222 2236 2215 2177 2137 2098 2076 2076 2083 2076 2055 2041 2021 2004 1989 1974 1957 1941 1935 1930 1909 1892 1874 1855 1874 1861 1847 1816 1788 1769 1751 1738 1728 1720 1712 1706 1702 1699 1696 1693 1693 1693 1700 1716 1742 1759 1787 1831 1872 1923 1959 1990 2027 2064 2054 1995 1935 1823 1719 1627 1581 1548 1520
1958 1910 1880 1897 1934 1951 1961 2026 2054 2035 2066 2072 2093 2127 2144 2212 2270 2312 2292 2271 2315 2374 2399 2354 2335 2330 2335 2347 2327 2294 2280 2284 2293 2290 2267 2237 2233 2254 2251 2217 2175 2137 2103 2088 2103 2106 2091 2069 2050 2033 2012 1996 1978 1959 1944 1930 1917 1897 1875 1875 1888 1881 1874 1864 1839 1807 1779 1760 1742 1737 1727 1715 1706 1703 1701 1695 1690 1690 1688 1691 1699 1717 1738 1770 1816 1858 1903 1943 1973 2000 2035 2076 2071 2024 1895 1769 1674 1610 1569 1537
1963 1912 1886 1935 1981 2013 2006 2052 2094 2083 2109 2098 2139 2150 2150 2194 2269 2333 2350 2316 2352 2403 2445 2424 2400 2395 2394 2395 2369 2341 2332 2327 2331 2325 2308 2290 2286 2286 2265 2223 2178 2140 2115 2124 2134 2118 2093 2066 2049 2031 2010 1990 1975 1962 1947 1923 1901 1902 1907 1907 1896 1892 1884 1873 1859 1826 1786 1769 1761 1746 1730 1720 1711 1704 1703 1699 1692 1689 1685 1685 1689 1698 1721 1751 1793 1842 1878 1916 1954 1980 2010 2054 2097 2057 1963 1835 1713 1631 1589 1560
1960 1911 1913 1966 2026 2070 2075 2061 2125 2140 2138 2139 2169 2177 2185 2196 2263 2343 2385 2372 2415 2453 2472 2463 2447 2445 2437 2420 2392 2361 2344 2330 2325 2331 2330 2329 2325 2318 2280 2229 2184 2149 2135 2153 2156 2121 2086 2056 2043 2029 2008 1989 1974 1955 1934 1917 1926 1944 1939 1917 1907 1899 1890 1880 1870 1850 1811 1787 1781 1765 1741 1727 1714 1708 1704 1701 1696 1692 1686 1682 1682 1688 1706 1737 1774 1819 1849 1886 1928 1963 1995 2025 2065 2061 1980 1881 1752 1654 1612 1577
1943 1920 1956 1992 2039 2086 2121 2115 2145 2187 2197 2200 2211 2228 2230 2229 2255 2332 2401 2431 2461 2472 2440 2420 2421 2425 2426 2395 2362 2337 2313 2295 2295 2304 2317 2340 2354 2332 2282 2237 2197 2171 2168 2173 2156 2114 2077 2055 2042 2024 2009 1992 1981 1958 1932 1946 1945 1948 1944 1935 1916 1898 1894 1885 1876 1859 1828 1820 1818 1786 1754 1735 1722 1709 1705 1702 1700 1696 1689 1683 1680 1679 1696 1730 1753 1792 1829 1863 1901 1940 1973 2001 2038 2058 2002 1919 1811 1709 1648 1602
1936 1946 1985 2020 2068 2125 2172 2196 2210 2237 2255 2272 2286 2292 2293 2291 2289 2328 2399 2463 2493 2455 2391 2362 2357 2366 2373 2352 2322 2300 2284 2262 2253 2269 2285 2318 2348 2339 2293 2254 2223 2207 2199 2175 2140 2097 2061 2044 2039 2022 2012 2000 1980 1966 1958 1969 1966 1957 1946 1945 1933 1908 1901 1890 1884 1874 1856 1861 1857 1806 1770 1744 1726 1715 1709 1703 1702 1700 1694 1686 1681 1676 1681 1708 1742 1765 1806 1842 1877 1913 1948 1980 2014 2048 2038 1986 1922 1803 1696 1630
1948 1968 2000 2054 2109 2143 2164 2186 2212 2233 2268 2310 2337 2352 2361 2370 2371 2378 2414 2477 2498 2444 2382 2327 2300 2306 2318 2309 2285 2260 2249 2229 2207 2229 2254 2293 2333 2349 2327 2290 2259 2232 2204 2167 2123 2080 2047 2036 2042 2034 2013 2001 1987 1979 1983 1976 1977 1973 1956 1944 1939 1916 1903 1893 1889 1885 1874 1880 1877 1827 1786 1757 1735 1722 1710 1706 1704 1703 1697 1690 1686 1679 1671 1687 1725 1745 1775 1815 1854 1890 1924 1959 1992 2031 2066 2060 1998 1883 1761 1675
1959 1996 2040 2066 2095 2110 2127 2136 2145 2174 2223 2283 2341 2390 2419 2431 2433 2439 2458 2483 2473 2437 2393 2334 2279 2252 2258 2262 2250 2221 2205 2198 2169 2192 2231 2275 2313 2348 2362 2334 2285 2238 2192 2151 2107 2067 2045 2039 2036 2034 2023 2010 2012 1999 1988 1993 1993 1985 1970 1948 1934 1923 1904 1894 1890 1889 1882 1887 1893 1856 1798 1767 1745 1729 1716 1709 1706 1706 1703 1696 1689 1681 1677 1677 1695 1727 1751 1780 1815 1853 1889 1925 1964 1997 2035 2060 2031 1945 1839 1741
1973 2005 2050 2074 2084 2093 2104 2125 2157 2196 2238 2288 2347 2409 2436 2427 2419 2430 2456 2463 2436 2416 2391 2345 2293 2242 2211 2209 2208 2199 2177 2164 2149 2174 2218 2247 2283 2330 2366 2347 2285 2225 2172 2127 2091 2072 2058 2040 2028 2032 2041 2033 2025 2017 2005 2010 2015 2002 1986 1965 1941 1923 1909 1898 1892 1891 1887 1888 1897 1871 1811 1776 1750 1733 1721 1712 1708 1707 1706 1700 1691 1683 1681 1674 1672 1694 1720 1749 1777 1812 1854 1891 1924 1965 1995 2008 2009 1980 1905 1805
1975 2020 2064 2078 2082 2108 2138 2159 2202 2252 2295 2334 2371 2400 2405 2381 2368 2383 2418 2430 2406 2384 2371 2350 2313 2269 2227 2192 2161 2160 2153 2133 2127 2146 2174 2201 2258 2313 2353 2345 2288 2230 2177 2142 2122 2102 2069 2039 2038 2048 2055 2050 2037 2028 2025 2031 2033 2020 2004 1983 1956 1927 1914 1905 1897 1893 1892 1891 1895 1868 1811 1778 1756 1739 1727 1716 1711 1709 1706 1703 1695 1686 1681 1677 1671 1674 1694 1724 1752 1783 1822 1858 1891 1924 1949 1958 1958 1955 1931 1858
2010 2057 2095 2096 2101 2145 2192 2214 2244 2292 2340 2371 2366 2359 2361 2340 2327 2352 2390 2404 2383 2351 2337 2338 2324 2285 2247 2222 2192 2165 2142 2118 2098 2112 2162 2216 2267 2304 2324 2323 2298 2260 2218 2188 2163 2124 2073 2044 2058 2081 2078 2065 2051 2038 2043 2069 2067 2036 2018 1998 1971 1940 1920 1910 1903 1895 1895 1897 1884 1847 1811 1784 1760 1746 1733 1724 1716 1712 1708 1703 1696 1690 1684 1675 1664 1668 1686 1703 1728 1759 1790 1824 1857 1881 1901 1912 1912 1909 1903 1884
2058 2135 2153 2110 2109 2144 2205 2250 2284 2327 2377 2382 2331 2310 2314 2290 2284 2325 2366 2382 2361 2325 2300 2305 2306 2281 2256 2227 2201 2179 2157 2130 2091 2101 2164 2215 2256 2274 2279 2289 2296 2288 2259 2220 2175 2122 2077 2062 2083 2111 2111 2084 2060 2053 2064 2105 2111 2062 2027 2010 1983 1955 1933 1914 1906 1891 1891 1895 1858 1819 1798 1780 1765 1752 1740 1730 1722 1717 1712 1706 1700 1693 1686 1676 1659 1661 1678 1689 1711 1738 1767 1799 1825 1842 1860 1869 1864 1859 1864 1876
2121 2194 2191 2144 2145 2162 2197 2261 2318 2367 2389 2360 2303 2265 2263 2242 2249 2306 2343 2351 2335 2311 2276 2261 2266 2253 2230 2204 2181 2161 2143 2121 2081 2090 2146 2194 2234 2241 2232 2243 2272 2291 2275 2232 2184 2142 2101 2090 2113 2142 2148 2108 2071 2067 2090 2139 2147 2092 2037 2015 2001 1973 1943 1918 1904 1891 1867 1849 1830 1807 1791 1781 1769 1758 1748 1737 1728 1721 1715 1711 1705 1695 1687 1680 1665 1655 1669 1683 1696 1718 1748 1780 1798 1808 1820 1829 1831 1828 1830 1848
2153 2223 2232 2187 2193 2225 2240 2281 2347 2387 2367 2323 2281 2234 2209 2207 2244 2296 2315 2311 2309 2301 2267 2234 2222 2213 2194 2170 2147 2128 2112 2098 2064 2070 2124 2172 2208 2208 2187 2200 2240 2273 2282 2255 2220 2174 2131 2131 2153 2181 2177 2124 2089 2097 2131 2188 2190 2119 2050 2020 2010 1984 1952 1924 1901 1884 1859 1834 1819 1803 1792 1783 1772 1764 1754 1743 1734 1727 1721 1717 1711 1700 1690 1684 1671 1654 1651 1664 1679 1699 1727 1754 1768 1774 1786 1795 1800 1794 1789 1788
2162 2240 2276 2261 2258 2284 2306 2331 2376 2387 2341 2281 2239 2202 2177 2206 2256 2281 2282 2270 2277 2286 2268 2235 2199 2182 2167 2143 2123 2114 2108 2093 2059 2053 2100 2152 2177 2170 2153 2166 2213 2255 2290 2294 2252 2201 2173 2184 2202 2215 2195 2142 2123 2142 2172 2210 2198 2138 2067 2020 2010 1994 1962 1933 1909 1891 1872 1851 1834 1817 1802 1792 1778 1768 1761 1750 1740 1732 1727 1721 1716 1707 1696 1685 1673 1664 1655 1647 1653 1679 1705 1725 1735 1741 1752 1759 1756 1752 1752 1745
2179 2233 2301 2326 2319 2331 2350 2364 2381 2372 2323 2258 2203 2166 2173 2217 2253 2262 2245 2225 2240 2264 2268 2248 2220 2193 2180 2177 2171 2162 2138 2113 2073 2040 2070 2120 2142 2123 2122 2162 2211 2253 2300 2329 2300 2245 2221 2236 2254 2253 2227 2173 2165 2191 2199 2187 2159 2134 2066 2015 2007 1999 1975 1949 1931 1917 1904 1884 1856 1832 1814 1798 1785 1773 1764 1754 1744 1736 1728 1722 1718 1712 1703 1689 1681 1677 1673 1667 1653 1653 1677 1694 1702 1710 1717 1719 1719 1721 1724 1712
2226 2268 2333 2361 2345 2331 2329 2336 2349 2343 2306 2252 2193 2145 2160 2205 2233 2235 2213 2186 2203 2231 2251 2266 2257 2237 2229 2227 2217 2195 2154 2120 2088 2040 2037 2079 2082 2083 2127 2180 2219 2251 2276 2307 2339 2306 2277 2296 2310 2299 2251 2213 2220 2223 2196 2149 2108 2080 2038 2018 2007 1995 1980 1956 1936 1924 1901 1880 1863 1837 1819 1805 1788 1774 1765 1756 1747 1738 1729 1721 1717 1715 1709 1699 1693 1687 1679 1681 1676 1647 1637 1659 1677 1684 1683 1681 1684 1689 1693 1685
2277 2330 2362 2359 2333 2296 2281 2285 2302 2311 2290 2246 2189 2134 2141 2184 2210 2210 2190 2158 2164 2185 2214 2261 2277 2267 2262 2261 2249 2212 2162 2125 2093 2059 2023 2021 2049 2096 2143 2180 2204 2216 2233 2273 2329 2365 2360 2366 2368 2329 2285 2271 2261 2223 2173 2114 2067 2038 2025 2020 2005 1987 1968 1945 1927 1912 1895 1872 1860 1851 1833 1814 1796 1782 1771 1760 1750 1741 1732 1727 1723 1720 1718 1708 1700 1697 1689 1678 1677 1668 1630 1628 1653 1662 1659 1656 1657 1659 1664 1664
2292 2339 2358 2350 2317 2264 2228 2234 2257 2272 2264 2235 2185 2133 2126 2157 2182 2181 2166 2135 2127 2147 2189 2233 2246 2246 2246 2254 2253 2223 2173 2135 2099 2066 2019 2021 2071 2113 2140 2153 2154 2159 2197 2250 2307 2378 2421 2437 2430 2380 2345 2309 2263 2210 2143 2095 2071 2052 2036 2023 2004 1982 1969 1961 1952 1936 1910 1894 1900 1877 1839 1821 1805 1788 1777 1766 1754 1744 1737 1735 1731 1727 1724 1716 1707 1704 1698 1684 1670 1676 1657 1622 1620 1636 1644 1645 1642 1641 1639 1642
2270 2320 2346 2337 2305 2254 2203 2187 2211 2227 2227 2215 2186 2139 2113 2124 2143 2141 2131 2112 2108 2137 2169 2192 2191 2192 2196 2212 2234 2229 2187 2149 2106 2060 2017 2017 2058 2093 2095 2083 2107 2140 2178 2232 2295 2370 2422 2443 2451 2439 2383 2319 2258 2197 2148 2129 2114 2084 2049 2028 2013 2003 1996 1989 1973 1944 1922 1930 1939 1910 1857 1832 1817 1798 1783 1774 1763 1751 1743 1740 1734 1729 1724 1721 1714 1707 1701 1692 1676 1665 1658 1645 1623 1617 1622 1622 1632 1634 1629 1626
2261 2317 2333 2318 2289 2255 2216 2171 2163 2168 2173 2170 2158 2127 2106 2102 2104 2099 2097 2094 2098 2113 2124 2145 2146 2136 2142 2172 2211 2223 2195 2154 2120 2069 2016 2008 2030 2041 2058 2097 2137 2172 2213 2259 2311 2375 2410 2423 2437 2453 2397 2323 2267 2220 2203 2180 2138 2090 2054 2035 2025 2022 2010 1994 1971 1949 1943 1958 1953 1907 1867 1860 1852 1824 1798 1782 1771 1760 1750 1743 1737 1731 1726 1724 1719 1710 1705 1699 1686 1670 1663 1666 1656 1634 1615 1596 1608 1630 1631 1620
2264 2313 2317 2286 2263 2234 2196 2158 2141 2134 2131 2126 2117 2105 2097 2092 2085 2082 2083 2086 2083 2081 2073 2093 2111 2096 2099 2143 2185 2203 2196 2163 2121 2061 2009 1994 2026 2056 2082 2110 2142 2180 2224 2273 2324 2379 2402 2409 2422 2437 2419 2353 2301 2274 2247 2198 2143 2099 2064 2052 2037 2029 2012 1992 1978 1970 1974 1974 1950 1907 1892 1918 1899 1856 1819 1794 1779 1768 1757 1750 1743 1735 1731 1727 1723 1715 1709 1703 1695 1682 1678 1680 1676 1657 1647 1627 1593 1601 1611 1617
2319 2322 2304 2269 2238 2211 2185 2168 2151 2137 2123 2116 2114 2111 2114 2116 2110 2105 2092 2081 2075 2070 2052 2037 2056 2066 2078 2121 2160 2181 2191 2163 2121 2077 2018 1993 2028 2031 2044 2071 2099 2137 2199 2263 2324 2371 2390 2397 2406 2413 2426 2407 2356 2310 2258 2208 2168 2125 2094 2075 2053 2035 2017 2001 1994 1991 1987 1977 1944 1918 1927 1938 1927 1886 1838 1802 1787 1777 1766 1758 1750 1741 1735 1733 1727 1721 1714 1707 1703 1693 1690 1693 1692 1673 1664 1656 1627 1594 1577 1578
2381 2365 2325 2292 2245 2237 2220 2167 2153 2137 2132 2138 2147 2147 2164 2169 2155 2134 2109 2084 2074 2061 2040 2021 2009 2022 2051 2091 2124 2154 2175 2157 2119 2061 2006 1985 1999 2031 2063 2100 2135 2175 2223 2275 2323 2355 2368 2373 2382 2389 2404 2426 2399 2335 2280 2243 2199 2144 2121 2102 2074 2040 2024 2019 2020 2006 1984 1966 1949 1951 1962 1955 1939 1917 1870 1825 1808 1790 1775 1768 1757 1749 1742 1738 1737 1728 1721 1714 1710 1707 1705 1703 1700 1693 1685 1676 1657 1640 1620 1618
2414 2415 2367 2321 2292 2245 2212 2192 2170 2152 2161 2179 2197 2190 2190 2173 2149 2120 2097 2072 2069 2063 2049 2050 2012 1998 2023 2056 2091 2126 2148 2143 2110 2068 2014 1977 1995 2019 2045 2074 2117 2186 2242 2286 2315 2332 2338 2342 2355 2366 2381 2405 2415 2369 2311 2270 2218 2179 2148 2132 2080 2046 2044 2044 2032 2008 1990 1980 1979 1987 1980 1968 1949 1932 1905 1871 1835 1804 1785 1774 1767 1758 1750 1744 1744 1738 1727 1721 1717 1716 1716 1711 1707 1703 1695 1688 1676 1655 1650 1646
2447 2463 2415 2352 2289 2265 2245 2216 2184 2184 2203 2228 2232 2204 2168 2130 2099 2088 2084 2078 2090 2094 2062 2027 2007 1992 2002 2037 2073 2094 2113 2123 2099 2061 2006 1970 2002 2027 2061 2099 2144 2194 2248 2286 2299 2305 2310 2318 2333 2346 2364 2380 2401 2399 2344 2297 2258 2218 2180 2137 2081 2070 2085 2086 2047 2016 2012 2010 2003 1993 1986 1976 1962 1944 1929 1904 1858 1818 1798 1785 1774 1764 1758 1749 1750 1750 1739 1729 1723 1721 1718 1715 1710 1707 1698 1692 1677 1665 1664 1659
2472 2510 2443 2376 2315 2300 2275 2234 2216 2228 2254 2253 2209 2163 2119 2096 2087 2111 2124 2116 2104 2070 2035 2025 2014 1992 1986 2006 2031 2047 2075 2093 2083 2050 1999 1966 1982 2005 2033 2077 2143 2202 2246 2274 2279 2281 2288 2300 2316 2329 2347 2359 2371 2393 2388 2350 2289 2246 2189 2141 2113 2122 2138 2115 2062 2039 2037 2027 2011 2000 1990 1981 1971 1955 1940 1914 1868 1828 1806 1793 1779 1768 1762 1753 1754 1754 1748 1736 1728 1725 1718 1718 1713 1709 1704 1699 1687 1682 1680 1677
2517 2538 2470 2406 2384 2352 2304 2266 2259 2268 2265 2225 2162 2118 2104 2111 2145 2169 2153 2115 2067 2053 2067 2059 2037 2006 1984 1975 1981 2000 2041 2055 2064 2035 1989 1960 1993 2026 2071 2105 2155 2211 2238 2258 2258 2260 2271 2286 2306 2315 2328 2335 2344 2365 2383 2387 2320 2266 2218 2183 2169 2180 2178 2125 2079 2083 2083 2054 2029 2009 1996 1985 1976 1965 1944 1912 1872 1833 1813 1802 1788 1774 1767 1759 1757 1752 1750 1740 1734 1727 1724 1723 1719 1716 1707 1702 1698 1694 1692 1694
2570 2558 2497 2469 2443 2405 2355 2305 2267 2270 2236 2177 2126 2113 2148 2189 2215 2203 2151 2109 2068 2102 2115 2092 2070 2040 2011 1985 1968 1969 1979 2000 2022 2019 1979 1955 1992 2026 2069 2126 2174 2208 2225 2237 2230 2226 2247 2274 2296 2298 2305 2310 2321 2341 2354 2383 2365 2313 2256 2239 2233 2226 2188 2145 2122 2140 2131 2098 2061 2027 2001 1992 1983 1974 1953 1913 1877 1844 1820 1810 1799 1785 1776 1767 1760 1755 1752 1745 1739 1729 1728 1726 1720 1716 1713 1716 1716 1711 1710 1710
2630 2593 2561 2540 2495 2444 2388 2313 2249 2240 2186 2134 2120 2144 2203 2260 2253 2217 2168 2107 2102 2144 2156 2137 2110 2080 2052 2021 1993 1983 1970 1955 1973 1992 1963 1954 1990 2022 2081 2135 2177 2195 2210 2215 2189 2190 2229 2258 2274 2273 2275 2282 2297 2318 2332 2350 2374 2350 2325 2310 2300 2263 2223 2201 2184 2193 2180 2149 2099 2047 2011 1998 1989 1977 1958 1932 1906 1868 1834 1815 1805 1795 1786 1776 1767 1763 1759 1754 1744 1736 1731 1729 1725 1726 1733 1739 1739 1735 1734 1731
2687 2655 2620 2575 2513 2445 2384 2298 2227 2194 2154 2140 2162 2194 2249 2301 2273 2227 2171 2119 2142 2178 2194 2184 2162 2122 2082 2046 2019 2002 1985 1965 1948 1952 1952 1957 2001 2040 2084 2130 2163 2171 2185 2174 2145 2165 2216 2240 2244 2244 2249 2260 2277 2298 2309 2324 2340 2370 2378 2364 2341 2311 2283 2261 2246 2242 2212 2172 2115 2061 2020 1998 1989 1982 1968 1958 1946 1903 1849 1820 1807 1798 1791 1786 1779 1773 1770 1765 1755 1747 1740 1735 1735 1739 1753 1758 1759 1760 1757 1755
2683 2719 2650 2579 2512 2435 2364 2264 2208 2171 2175 2210 2253 2266 2307 2321 2280 2219 2165 2161 2190 2218 2232 2222 2197 2155 2102 2060 2035 2019 2001 1989 1970 1946 1943 1949 1993 2023 2061 2102 2120 2120 2136 2121 2111 2149 2197 2213 2216 2220 2233 2247 2262 2276 2286 2303 2314 2329 2350 2362 2348 2336 2326 2310 2296 2272 2227 2172 2118 2068 2025 2002 1991 1988 1982 1971 1965 1938 1873 1832 1813 1801 1795 1789 1787 1782 1778 1773 1766 1760 1753 1744 1742 1747 1759 1764 1771 1771 1770 1773
2655 2717 2652 2584 2508 2419 2342 2237 2191 2171 2193 2245 2284 2310 2328 2311 2264 2217 2198 2224 2243 2265 2263 2238 2203 2166 2120 2077 2060 2050 2029 2012 1992 1969 1941 1936 1952 1986 2023 2068 2081 2061 2085 2065 2086 2144 2179 2187 2195 2205 2220 2234 2247 2256 2264 2279 2287 2301 2317 2324 2320 2313 2318 2327 2305 2255 2202 2153 2103 2061 2029 2011 1996 1989 1986 1984 1973 1948 1893 1847 1824 1812 1799 1785 1783 1783 1778 1779 1776 1770 1766 1754 1747 1752 1761 1768 1771 1773 1771 1776
2633 2696 2649 2580 2514 2435 2339 2232 2182 2171 2196 2242 2290 2329 2329 2307 2275 2262 2258 2276 2282 2280 2262 2230 2197 2163 2137 2109 2095 2084 2060 2042 2017 1993 1963 1933 1932 1941 1984 2028 2038 2010 2031 2033 2084 2138 2162 2169 2180 2191 2205 2215 2226 2235 2237 2253 2262 2276 2291 2297 2295 2284 2289 2306 2292 2241 2190 2136 2109 2080 2054 2017 1999 1987 1977 1942 1924 1904 1884 1860 1836 1821 1800 1781 1779 1778 1775 1777 1779 1773 1772 1764 1755 1754 1761 1770 1771 1771 1776 1787
2623 2682 2643 2565 2511 2439 2346 2250 2196 2171 2208 2275 2347 2378 2358 2327 2309 2300 2279 2279 2266 2239 2221 2203 2180 2170 2154 2138 2130 2116 2100 2081 2053 2023 1993 1958 1933 1928 1942 1971 1988 1971 1999 2040 2094 2136 2145 2150 2165 2174 2188 2197 2204 2213 2216 2231 2238 2253 2265 2271 2267 2254 2264 2288 2298 2256 2222 2191 2152 2110 2064 2025 2009 1989 1978 1979 1963 1932 1909 1873 1846 1830 1806 1783 1776 1774 1772 1771 1774 1772 1771 1772 1764 1758 1760 1768 1769 1771 1784 1801
2620 2678 2642 2559 2497 2433 2354 2267 2218 2195 2225 2301 2379 2419 2398 2346 2311 2287 2256 2226 2202 2180 2161 2148 2139 2142 2152 2151 2128 2114 2105 2091 2086 2057 2021 1981 1954 1929 1922 1930 1951 1971 2010 2052 2098 2126 2129 2134 2147 2156 2169 2178 2185 2193 2200 2211 2216 2229 2240 2244 2237 2221 2247 2271 2290 2291 2250 2207 2157 2108 2063 2030 2011 1993 1978 1973 1978 1957 1926 1876 1871 1854 1823 1798 1779 1771 1769 1766 1767 1770 1768 1774 1771 1764 1761 1765 1767 1771 1787 1805
2633 2685 2638 2559 2492 2418 2337 2265 2221 2206 2235 2304 2382 2433 2419 2353 2300 2255 2212 2186 2167 2147 2131 2113 2097 2091 2099 2131 2111 2096 2087 2074 2072 2070 2054 2019 1983 1951 1929 1919 1927 1950 1985 2035 2087 2106 2109 2119 2129 2135 2146 2155 2163 2172 2179 2189 2192 2203 2213 2215 2206 2189 2228 2251 2266 2278 2250 2199 2148 2112 2083 2055 2024 1995 1980 1960 1969 1959 1927 1914 1914 1891 1853 1821 1797 1773 1768 1764 1762 1767 1767 1770 1773 1768 1764 1764 1770 1770 1780 1798
2674 2718 2644 2561 2474 2403 2320 2252 2213 2200 2241 2308 2384 2435 2418 2357 2297 2252 2223 2215 2200 2177 2149 2124 2105 2081 2059 2093 2088 2080 2067 2054 2050 2048 2050 2041 2001 1959 1931 1924 1917 1919 1955 2021 2077 2082 2081 2102 2108 2110 2120 2129 2138 2150 2159 2169 2172 2179 2187 2188 2174 2170 2210 2229 2243 2259 2253 2214 2186 2161 2122 2081 2041 2005 1981 1952 1952 1963 1964 1960 1959 1944 1900 1849 1822 1791 1774 1765 1760 1759 1763 1768 1773 1771 1765 1763 1767 1768 1776 1792
2728 2741 2650 2570 2479 2387 2314 2257 2220 2207 2250 2323 2383 2451 2421 2363 2316 2293 2286 2255 2220 2186 2147 2119 2100 2069 2061 2066 2056 2051 2041 2032 2027 2023 2024 2019 1984 1942 1942 1951 1934 1914 1927 2003 2037 2033 2077 2083 2085 2086 2092 2102 2114 2127 2140 2152 2154 2158 2163 2159 2144 2174 2195 2205 2220 2242 2257 2253 2227 2185 2136 2087 2043 2007 1981 1957 1949 1968 1985 1985 1983 1979 1956 1899 1855 1816 1788 1771 1762 1754 1755 1767 1771 1772 1766 1763 1764 1769 1777 1787
2789 2771 2668 2588 2500 2399 2321 2278 2240 2245 2278 2374 2444 2464 2413 2363 2327 2311 2290 2249 2220 2200 2187 2149 2118 2096 2067 2041 2031 2020 2010 2003 1999 1991 1988 1982 1955 1949 1965 1964 1950 1926 1912 1957 1978 2034 2070 2064 2066 2068 2071 2080 2093 2105 2118 2134 2136 2137 2135 2124 2130 2170 2177 2181 2199 2225 2251 2268 2239 2182 2127 2076 2045 2020 1990 1957 1937 1962 1988 1998 1994 1991 1986 1959 1895 1841 1806 1781 1766 1756 1751 1763 1767 1770 1766 1764 1765 1769 1776 1783
2825 2810 2733 2636 2545 2451 2368 2335 2323 2310 2319 2425 2496 2440 2369 2337 2313 2298 2286 2276 2262 2235 2193 2150 2121 2096 2067 2047 2041 2033 2021 2009 1997 1990 1984 1974 1968 1983 1990 1970 1957 1942 1919 1938 1991 2044 2054 2051 2054 2056 2059 2065 2075 2088 2103 2117 2117 2116 2103 2098 2132 2158 2153 2157 2183 2209 2239 2264 2243 2185 2143 2116 2079 2033 1994 1955 1930 1952 1982 1996 1994 1990 1986 1984 1948 1868 1825 1792 1770 1758 1750 1752 1763 1769 1765 1764 1765 1768 1774 1782
2762 2768 2782 2740 2637 2543 2482 2451 2430 2397 2432 2493 2424 2366 2310 2293 2293 2303 2319 2323 2287 2240 2191 2146 2110 2084 2072 2066 2058 2052 2045 2035 2022 2018 2011 2001 1999 2004 1996 1974 1960 1939 1908 1947 2015 2035 2035 2035 2041 2040 2043 2052 2063 2078 2094 2098 2099 2096 2072 2075 2130 2131 2124 2147 2181 2205 2231 2259 2265 2221 2179 2143 2095 2039 1989 1954 1926 1932 1969 1981 1983 1982 1976 1980 1974 1909 1843 1803 1777 1760 1750 1745 1754 1766 1762 1761 1761 1767 1772 1780
2689 2692 2713 2735 2733 2682 2604 2569 2564 2565 2587 2510 2372 2300 2258 2239 2245 2264 2290 2305 2283 2238 2194 2158 2129 2104 2085 2083 2088 2089 2085 2073 2055 2045 2035 2030 2031 2017 1992 1976 1960 1924 1905 1971 2011 2016 2014 2018 2021 2013 2016 2038 2057 2075 2083 2079 2079 2075 2053 2061 2099 2092 2107 2151 2173 2196 2221 2245 2249 2206 2155 2115 2088 2044 1994 1964 1930 1912 1943 1960 1965 1969 1968 1966 1975 1948 1862 1815 1786 1762 1751 1745 1744 1762 1758 1758 1761 1765 1769 1778
2614 2623 2641 2673 2712 2754 2749 2693 2693 2704 2633 2507 2394 2282 2238 2210 2201 2211 2229 2250 2263 2235 2197 2172 2157 2134 2113 2114 2125 2131 2128 2113 2087 2068 2059 2053 2042 2019 1991 1968 1945 1911 1898 1950 1985 1992 1993 1998 1994 1984 2004 2031 2054 2069 2069 2063 2062 2059 2039 2033 2054 2070 2112 2142 2159 2183 2206 2228 2226 2178 2124 2078 2049 2021 1984 1956 1935 1911 1914 1944 1942 1950 1958 1954 1966 1960 1881 1825 1792 1765 1751 1741 1741 1756 1756 1755 1758 1763 1768 1777
2544 2556 2577 2608 2653 2701 2745 2796 2785 2697 2596 2487 2388 2295 2253 2226 2219 2219 2223 2234 2239 2231 2201 2176 2157 2144 2142 2142 2136 2137 2131 2122 2111 2098 2076 2056 2037 2017 1992 1961 1933 1906 1888 1917 1959 1969 1975 1974 1968 1980 2002 2019 2038 2049 2052 2049 2044 2036 2012 2009 2049 2082 2108 2128 2144 2160 2184 2199 2190 2163 2122 2075 2038 2007 1985 1959 1943 1929 1907 1912 1931 1933 1947 1948 1954 1949 1888 1830 1793 1768 1751 1742 1738 1744 1753 1751 1756 1761 1766 1775
2474 2487 2517 2553 2590 2641 2704 2792 2816 2710 2610 2506 2383 2328 2319 2331 2336 2282 2234 2232 2227 2219 2192 2172 2165 2159 2167 2152 2121 2114 2111 2113 2125 2117 2085 2055 2035 2014 1992 1966 1936 1905 1885 1891 1922 1945 1950 1948 1958 1979 1988 1999 2011 2022 2032 2031 2023 1999 1982 2019 2063 2076 2091 2111 2129 2146 2168 2166 2130 2112 2110 2087 2056 2033 2009 1978 1953 1938 1903 1881 1908 1924 1935 1938 1941 1934 1887 1830 1793 1768 1749 1741 1733 1734 1750 1748 1753 1759 1765 1773
2415 2416 2454 2503 2551 2617 2680 2749 2820 2802 2689 2559 2473 2460 2487 2482 2421 2329 2253 2222 2208 2183 2152 2138 2156 2161 2148 2139 2109 2088 2084 2090 2104 2103 2089 2069 2046 2015 1989 1971 1949 1922 1892 1879 1887 1910 1928 1934 1950 1963 1968 1981 1994 2001 2009 2012 1991 1966 1988 2035 2052 2062 2076 2096 2113 2128 2147 2140 2093 2057 2055 2050 2030 2012 1998 1976 1949 1927 1913 1882 1880 1916 1923 1922 1922 1925 1887 1827 1792 1767 1749 1734 1729 1735 1744 1744 1749 1756 1763 1774
2369 2361 2389 2461 2526 2577 2648 2711 2763 2800 2791 2740 2678 2624 2590 2516 2403 2321 2263 2216 2192 2154 2111 2093 2109 2127 2110 2103 2093 2068 2056 2058 2074 2080 2079 2068 2053 2032 1998 1970 1955 1935 1907 1884 1875 1888 1901 1913 1935 1944 1951 1963 1977 1984 1993 1989 1948 1953 2007 2032 2039 2050 2064 2078 2092 2104 2115 2103 2069 2027 2008 2015 1993 1965 1960 1956 1942 1918 1906 1883 1868 1896 1909 1909 1904 1914 1886 1819 1786 1763 1746 1727 1727 1736 1736 1741 1748 1754 1762 1774
2335 2321 2341 2388 2465 2543 2606 2659 2679 2710 2775 2796 2736 2653 2572 2502 2430 2332 2245 2201 2175 2133 2088 2061 2054 2078 2073 2061 2072 2053 2028 2021 2036 2051 2064 2060 2047 2022 1993 1979 1964 1946 1924 1900 1877 1872 1876 1892 1915 1924 1933 1942 1954 1967 1975 1952 1924 1965 2009 2018 2031 2041 2050 2054 2062 2078 2080 2060 2032 1995 1965 1976 1977 1942 1919 1926 1931 1906 1885 1870 1865 1879 1886 1893 1885 1893 1870 1809 1778 1758 1743 1729 1723 1725 1730 1739 1744 1751 1762 1774
2306 2285 2293 2319 2387 2497 2556 2577 2599 2636 2704 2750 2701 2614 2541 2487 2409 2308 2238 2198 2161 2122 2089 2059 2026 2030 2032 2016 2036 2038 2006 1987 1996 2018 2040 2046 2030 1989 1968 1970 1962 1956 1939 1917 1890 1866 1862 1868 1880 1898 1914 1924 1939 1952 1944 1914 1928 1980 1998 2003 2015 2023 2026 2029 2039 2046 2032 2011 1999 1972 1938 1947 1963 1936 1900 1896 1912 1897 1872 1858 1853 1861 1864 1870 1863 1866 1848 1801 1772 1754 1740 1733 1718 1719 1731 1732 1738 1748 1762 1775
2274 2254 2252 2280 2331 2386 2459 2496 2514 2572 2649 2718 2695 2611 2540 2469 2393 2300 2243 2211 2172 2136 2105 2076 2042 2008 1991 1982 1982 1997 1988 1961 1957 1992 2016 2019 2009 1974 1949 1948 1941 1939 1942 1938 1927 1900 1872 1859 1858 1868 1889 1908 1924 1934 1906 1892 1941 1975 1978 1989 1997 1992 1988 1999 2010 2008 1988 1965 1956 1951 1918 1907 1927 1920 1886 1865 1877 1874 1855 1853 1833 1833 1843 1846 1840 1836 1825 1791 1764 1748 1737 1729 1714 1716 1726 1728 1734 1745 1760 1774
2260 2228 2218 2240 2281 2322 2369 2415 2458 2523 2612 2686 2709 2650 2574 2508 2459 2380 2300 2248 2199 2153 2113 2088 2063 2034 2008 1981 1959 1949 1945 1938 1934 1954 1983 1996 1994 1965 1941 1938 1929 1924 1925 1932 1937 1935 1918 1881 1852 1848 1860 1874 1893 1906 1883 1885 1932 1950 1951 1965 1964 1952 1953 1963 1966 1953 1945 1928 1913 1916 1899 1881 1890 1892 1864 1837 1844 1849 1840 1839 1813 1807 1819 1824 1818 1810 1802 1781 1758 1744 1734 1724 1711 1714 1720 1723 1731 1742 1755 1770
2278 2211 2194 2207 2242 2289 2332 2374 2425 2496 2592 2665 2722 2691 2606 2557 2513 2471 2402 2306 2226 2167 2128 2107 2094 2086 2060 2025 2000 1974 1953 1929 1909 1916 1952 1978 1975 1950 1924 1922 1919 1903 1901 1910 1916 1922 1932 1926 1893 1858 1842 1844 1852 1866 1867 1874 1902 1911 1910 1924 1918 1920 1927 1926 1920 1900 1897 1899 1885 1881 1871 1847 1853 1860 1838 1808 1815 1822 1810 1806 1792 1788 1796 1801 1796 1790 1785 1770 1752 1737 1727 1720 1709 1709 1714 1718 1725 1738 1751 1767
2244 2190 2174 2183 2214 2265 2323 2387 2454 2528 2608 2662 2717 2684 2602 2532 2487 2482 2428 2332 2240 2177 2121 2087 2092 2111 2092 2053 2027 2012 1990 1952 1897 1885 1933 1962 1961 1941 1912 1903 1905 1892 1882 1888 1892 1895 1909 1928 1925 1906 1879 1855 1842 1839 1845 1852 1864 1864 1863 1875 1875 1894 1897 1881 1869 1859 1852 1850 1855 1845 1842 1831 1826 1819 1798 1783 1782 1783 1784 1785 1779 1775 1777 1779 1781 1778 1764 1743 1726 1718 1716 1714 1704 1703 1708 1714 1721 1730 1744 1760
2239 2183 2155 2162 2190 2247 2305 2377 2462 2523 2583 2661 2697 2634 2575 2501 2420 2390 2404 2322 2222 2168 2118 2058 2040 2067 2083 2058 2023 1999 1979 1951 1905 1875 1918 1953 1948 1930 1903 1885 1885 1879 1863 1864 1868 1873 1888 1905 1911 1922 1931 1906 1872 1845 1832 1831 1828 1824 1824 1825 1830 1836 1833 1821 1808 1802 1803 1799 1796 1800 1805 1804 1792 1776 1764 1760 1760 1755 1757 1763 1764 1755 1760 1763 1767 1749 1722 1709 1702 1700 1700 1702 1696 1702 1704 1707 1714 1721 1733 1751
2244 2175 2154 2136 2160 2209 2262 2317 2404 2476 2552 2623 2644 2595 2508 2439 2378 2314 2341 2333 2204 2125 2098 2066 2013 2008 2040 2053 2024 1993 1968 1943 1902 1863 1895 1937 1934 1920 1899 1866 1861 1857 1836 1839 1844 1855 1871 1880 1885 1900 1926 1939 1913 1873 1846 1834 1827 1822 1818 1813 1808 1804 1799 1800 1801 1798 1791 1792 1793 1782 1775 1775 1779 1781 1768 1763 1763 1760 1750 1742 1735 1732 1737 1734 1730 1716 1715 1716 1711 1700 1692 1691 1691 1693 1696 1698 1702 1710 1723 1740
2260 2174 2139 2141 2132 2176 2236 2297 2375 2455 2527 2555 2566 2571 2492 2401 2339 2276 2235 2301 2221 2122 2062 2040 2007 1974 1990 2033 2020 1986 1957 1932 1911 1868 1850 1894 1916 1910 1896 1856 1851 1840 1816 1818 1821 1832 1845 1847 1861 1883 1899 1921 1927 1918 1893 1875 1867 1866 1857 1839 1832 1824 1822 1825 1829 1829 1826 1823 1816 1807 1799 1800 1799 1800 1798 1800 1786 1793 1806 1792 1771 1752 1736 1734 1733 1739 1753 1753 1736 1710 1697 1691 1688 1683 1687 1692 1695 1702 1715 1732
2280 2179 2123 2115 2103 2150 2214 2278 2335 2411 2506 2487 2464 2467 2443 2400 2334 2253 2182 2194 2217 2150 2073 2017 1994 1953 1951 1984 2010 1985 1943 1914 1899 1871 1836 1870 1914 1904 1880 1846 1836 1823 1805 1806 1802 1816 1823 1834 1848 1863 1880 1894 1910 1927 1933 1935 1925 1914 1898 1878 1875 1866 1858 1864 1867 1861 1852 1849 1848 1845 1838 1841 1831 1828 1848 1849 1814 1838 1862 1856 1831 1788 1770 1770 1772 1778 1784 1782 1761 1727 1706 1695 1689 1682 1679 1686 1690 1692 1704 1720
2305 2200 2122 2100 2120 2119 2177 2235 2287 2369 2493 2458 2394 2344 2332 2330 2302 2249 2173 2122 2128 2093 2068 2031 1982 1947 1921 1934 1979 1977 1935 1895 1863 1842 1825 1869 1915 1900 1868 1828 1814 1802 1790 1790 1785 1796 1800 1817 1827 1845 1859 1870 1887 1899 1923 1943 1946 1932 1917 1916 1919 1913 1905 1912 1912 1915 1898 1903 1906 1892 1884 1896 1874 1860 1885 1885 1838 1858 1899 1901 1875 1846 1826 1799 1797 1806 1810 1805 1787 1755 1723 1698 1685 1680 1676 1677 1682 1682 1692 1706
