ncols 100
nrows 100
xllcorner 457900
yllcorner 5716800
cellsize 100
NODATA_value -9999
1697 1685 1674 1666 1664 1669 1675 1682 1697 1729 1748 1737 1703 1673 1657 1648 1644 1652 1659 1650 1629 1612 1617 1624 1635 1649 1638 1607 1598 1619 1652 1689 1728 1763 1808 1852 1859 1820 1798 1797 1790 1755 1713 1691 1702 1684 1668 1684 1689 1700 1699 1670 1645 1636 1642 1658 1671 1672 1660 1628 1602 1597 1613 1608 1592 1572 1559 1542 1534 1501 1506 1530 1533 1535 1566 1575 1571 1563 1535 1516 1500 1473 1464 1466 1465 1463 1463 1463 1462 1460 1454 1452 1466 1469 1462 1455 1447 1446 1446 1444
1694 1683 1676 1675 1674 1676 1681 1689 1700 1718 1738 1736 1719 1684 1660 1648 1641 1638 1635 1627 1628 1641 1643 1649 1648 1653 1652 1621 1601 1607 1635 1669 1703 1736 1776 1814 1847 1858 1837 1816 1779 1731 1726 1738 1712 1690 1688 1699 1722 1737 1742 1712 1665 1639 1627 1634 1648 1672 1683 1651 1622 1614 1613 1607 1586 1565 1548 1524 1506 1504 1544 1567 1547 1556 1601 1626 1617 1617 1602 1572 1546 1501 1477 1468 1467 1462 1459 1457 1452 1452 1462 1482 1506 1515 1504 1479 1459 1454 1452 1448
1692 1685 1684 1683 1680 1685 1687 1690 1704 1719 1731 1725 1715 1702 1667 1651 1642 1634 1629 1628 1645 1679 1683 1673 1670 1666 1664 1644 1613 1603 1621 1650 1679 1708 1742 1777 1818 1862 1868 1829 1789 1772 1769 1745 1731 1729 1722 1717 1723 1720 1717 1715 1679 1637 1615 1614 1625 1640 1664 1659 1631 1614 1596 1585 1580 1570 1552 1515 1502 1525 1558 1575 1563 1572 1616 1655 1668 1661 1649 1618 1580 1528 1486 1477 1489 1486 1485 1486 1487 1493 1504 1525 1549 1555 1541 1518 1500 1485 1468 1453
1696 1689 1694 1692 1686 1691 1698 1697 1703 1718 1730 1722 1704 1694 1671 1648 1641 1638 1634 1636 1652 1686 1715 1716 1701 1686 1682 1663 1631 1607 1611 1628 1651 1679 1713 1747 1785 1820 1847 1847 1816 1797 1782 1768 1763 1761 1742 1720 1705 1692 1687 1697 1681 1637 1609 1597 1603 1618 1635 1654 1640 1603 1582 1569 1562 1555 1533 1509 1519 1542 1562 1582 1581 1584 1615 1665 1695 1667 1620 1595 1565 1512 1484 1514 1540 1528 1527 1537 1543 1547 1552 1566 1584 1588 1571 1553 1544 1525 1490 1461
1698 1695 1701 1697 1692 1699 1707 1708 1706 1713 1725 1720 1703 1688 1667 1651 1642 1638 1639 1638 1647 1675 1712 1739 1734 1713 1698 1677 1663 1640 1610 1611 1629 1654 1686 1720 1753 1781 1816 1850 1842 1814 1801 1791 1778 1762 1740 1720 1702 1679 1658 1665 1660 1619 1601 1592 1587 1590 1600 1625 1636 1603 1574 1560 1547 1537 1516 1520 1555 1573 1589 1609 1603 1611 1647 1685 1685 1649 1623 1576 1531 1492 1504 1567 1601 1601 1585 1575 1567 1574 1575 1581 1605 1614 1608 1596 1587 1561 1516 1476
1702 1703 1707 1701 1698 1709 1719 1723 1720 1710 1710 1710 1696 1685 1665 1649 1646 1647 1649 1642 1644 1668 1696 1726 1749 1743 1715 1691 1683 1674 1639 1614 1618 1636 1667 1697 1728 1765 1806 1853 1871 1850 1825 1808 1787 1767 1743 1721 1705 1693 1672 1647 1637 1625 1607 1595 1585 1576 1572 1581 1600 1587 1557 1546 1537 1521 1517 1545 1585 1609 1620 1632 1636 1644 1680 1701 1661 1612 1596 1572 1522 1494 1521 1577 1632 1648 1633 1607 1570 1558 1572 1574 1592 1615 1626 1622 1605 1575 1537 1496
1708 1711 1715 1709 1700 1708 1732 1737 1726 1713 1700 1701 1691 1679 1664 1650 1655 1662 1661 1649 1645 1663 1687 1709 1737 1749 1728 1701 1681 1672 1664 1635 1617 1629 1654 1686 1722 1762 1802 1835 1868 1887 1864 1821 1791 1772 1750 1737 1732 1712 1681 1664 1670 1667 1642 1613 1595 1584 1569 1560 1558 1549 1539 1535 1528 1516 1527 1560 1584 1611 1642 1672 1684 1678 1673 1675 1656 1610 1562 1531 1508 1517 1553 1585 1628 1658 1661 1634 1585 1547 1555 1562 1566 1594 1615 1614 1599 1576 1544 1508
1717 1718 1720 1714 1706 1705 1715 1724 1719 1706 1695 1689 1682 1672 1663 1655 1675 1694 1681 1659 1648 1660 1680 1696 1715 1735 1731 1704 1678 1658 1650 1639 1625 1628 1650 1682 1719 1753 1779 1807 1837 1876 1884 1844 1814 1800 1783 1769 1750 1717 1695 1690 1691 1693 1680 1643 1608 1589 1576 1563 1560 1567 1555 1533 1523 1520 1532 1553 1572 1602 1641 1684 1698 1673 1640 1631 1624 1585 1538 1512 1524 1542 1581 1622 1629 1645 1670 1655 1604 1549 1536 1553 1551 1565 1592 1596 1588 1570 1540 1506
1726 1726 1726 1719 1712 1710 1712 1711 1705 1695 1687 1685 1681 1678 1663 1666 1702 1723 1709 1678 1655 1660 1676 1687 1695 1713 1725 1708 1675 1650 1637 1633 1624 1629 1654 1680 1710 1737 1762 1790 1818 1848 1886 1881 1846 1826 1804 1779 1755 1734 1722 1704 1678 1678 1691 1670 1622 1589 1575 1567 1575 1597 1578 1535 1522 1528 1540 1551 1564 1586 1618 1656 1666 1650 1629 1599 1579 1544 1521 1541 1562 1594 1619 1640 1654 1628 1631 1646 1613 1561 1527 1538 1540 1541 1566 1576 1570 1556 1531 1499
1734 1732 1731 1723 1718 1721 1723 1719 1709 1701 1698 1697 1695 1685 1665 1671 1717 1744 1735 1699 1666 1665 1672 1675 1680 1689 1707 1706 1670 1642 1635 1630 1623 1637 1663 1683 1704 1726 1751 1776 1800 1832 1861 1890 1877 1840 1814 1785 1762 1738 1714 1704 1683 1659 1663 1669 1634 1591 1574 1565 1562 1580 1570 1532 1529 1549 1563 1571 1571 1580 1604 1635 1637 1616 1602 1588 1558 1522 1541 1595 1609 1617 1641 1661 1674 1651 1612 1620 1609 1569 1527 1516 1527 1525 1539 1551 1548 1536 1516 1487
1742 1739 1738 1732 1729 1735 1732 1723 1717 1711 1704 1697 1685 1676 1665 1670 1717 1749 1740 1704 1677 1674 1668 1664 1666 1668 1681 1691 1667 1639 1633 1630 1628 1642 1664 1681 1697 1721 1742 1764 1789 1818 1851 1886 1882 1848 1818 1789 1751 1718 1693 1677 1670 1662 1643 1646 1633 1595 1573 1563 1551 1558 1553 1529 1537 1567 1581 1588 1590 1592 1612 1634 1621 1594 1578 1583 1567 1533 1553 1616 1653 1650 1642 1652 1673 1673 1641 1607 1577 1554 1525 1501 1502 1506 1511 1522 1524 1514 1497 1472
1752 1747 1747 1742 1738 1738 1730 1717 1706 1699 1694 1683 1678 1677 1672 1684 1713 1737 1729 1706 1697 1689 1673 1663 1660 1658 1660 1666 1658 1641 1631 1628 1631 1636 1653 1675 1695 1711 1732 1757 1783 1809 1834 1868 1878 1854 1822 1792 1760 1733 1709 1682 1658 1645 1641 1634 1619 1596 1574 1559 1549 1544 1536 1531 1553 1591 1604 1611 1617 1615 1623 1627 1604 1584 1573 1558 1559 1539 1553 1602 1636 1657 1662 1659 1645 1645 1652 1620 1580 1557 1536 1512 1494 1486 1486 1498 1495 1487 1479 1459
1766 1758 1755 1751 1746 1741 1730 1715 1704 1698 1691 1687 1686 1684 1677 1693 1716 1731 1728 1724 1729 1717 1692 1672 1664 1659 1652 1649 1647 1640 1637 1643 1646 1636 1640 1661 1680 1697 1719 1746 1772 1796 1822 1856 1886 1870 1827 1793 1764 1744 1724 1696 1672 1651 1626 1627 1620 1596 1576 1558 1548 1540 1532 1541 1582 1630 1648 1648 1653 1655 1646 1629 1603 1583 1570 1563 1550 1536 1563 1589 1604 1629 1653 1668 1654 1618 1618 1628 1614 1591 1558 1533 1516 1504 1491 1481 1479 1474 1462 1456
1782 1773 1764 1760 1756 1751 1742 1721 1706 1697 1696 1694 1690 1694 1681 1692 1718 1737 1740 1741 1753 1749 1722 1690 1672 1664 1656 1647 1643 1638 1646 1679 1679 1654 1636 1644 1664 1682 1705 1729 1755 1784 1813 1843 1874 1871 1826 1784 1756 1734 1715 1690 1663 1642 1618 1615 1618 1598 1576 1558 1542 1537 1540 1556 1587 1624 1657 1680 1694 1694 1669 1641 1620 1602 1582 1561 1548 1543 1564 1578 1586 1603 1632 1657 1663 1634 1598 1592 1597 1607 1585 1555 1541 1531 1509 1483 1476 1470 1461 1478
1786 1783 1760 1749 1742 1748 1733 1714 1702 1703 1710 1703 1700 1705 1693 1693 1717 1742 1757 1754 1762 1768 1745 1707 1680 1666 1655 1648 1646 1644 1637 1684 1710 1685 1653 1642 1655 1674 1694 1716 1742 1776 1800 1824 1850 1860 1822 1775 1747 1726 1703 1681 1662 1640 1625 1601 1598 1585 1564 1545 1543 1547 1548 1561 1581 1605 1631 1664 1697 1720 1688 1649 1620 1597 1577 1555 1545 1552 1568 1578 1588 1596 1610 1638 1656 1646 1610 1578 1567 1580 1590 1564 1540 1526 1508 1494 1484 1470 1468 1498
1781 1780 1787 1780 1757 1729 1722 1722 1713 1723 1723 1712 1711 1715 1703 1697 1715 1741 1760 1762 1748 1748 1739 1714 1682 1661 1653 1654 1654 1650 1638 1670 1721 1710 1673 1647 1652 1668 1687 1708 1732 1761 1775 1806 1828 1831 1815 1772 1741 1714 1694 1679 1656 1635 1619 1604 1585 1566 1556 1559 1571 1564 1556 1560 1573 1592 1610 1636 1669 1710 1698 1649 1604 1575 1562 1557 1556 1561 1581 1591 1591 1604 1621 1631 1639 1638 1616 1589 1568 1554 1567 1547 1523 1509 1498 1491 1489 1476 1468 1494
1824 1817 1796 1770 1756 1748 1739 1730 1726 1733 1736 1725 1721 1720 1707 1702 1712 1731 1745 1749 1730 1716 1715 1707 1678 1659 1658 1659 1659 1655 1640 1662 1714 1720 1686 1656 1654 1661 1677 1697 1719 1742 1768 1798 1800 1795 1799 1769 1735 1706 1679 1661 1648 1641 1623 1605 1580 1561 1573 1601 1614 1590 1580 1570 1569 1580 1592 1623 1666 1696 1696 1651 1598 1569 1559 1570 1569 1574 1584 1602 1606 1618 1640 1650 1631 1626 1622 1601 1579 1558 1541 1520 1507 1503 1492 1487 1484 1470 1491 1510
1854 1828 1821 1799 1776 1763 1751 1742 1738 1741 1742 1736 1731 1726 1711 1710 1718 1721 1723 1728 1720 1699 1691 1685 1668 1662 1664 1664 1661 1653 1643 1656 1687 1708 1690 1659 1654 1662 1671 1686 1708 1733 1757 1786 1773 1760 1768 1758 1726 1696 1672 1645 1636 1630 1610 1590 1571 1567 1589 1623 1645 1631 1621 1602 1585 1585 1593 1618 1645 1684 1689 1644 1596 1570 1567 1574 1579 1585 1589 1601 1622 1637 1657 1655 1635 1599 1613 1613 1582 1556 1525 1526 1536 1527 1504 1489 1480 1476 1515 1546
1903 1845 1834 1826 1795 1774 1760 1751 1750 1752 1742 1739 1736 1729 1716 1718 1718 1719 1708 1707 1706 1699 1683 1670 1670 1675 1674 1666 1657 1649 1659 1658 1664 1685 1679 1668 1669 1672 1673 1677 1696 1721 1743 1768 1760 1723 1724 1735 1710 1682 1660 1632 1622 1611 1589 1580 1580 1587 1594 1631 1659 1676 1673 1651 1624 1605 1599 1612 1633 1662 1670 1631 1591 1573 1575 1580 1588 1593 1600 1606 1612 1637 1647 1638 1624 1589 1579 1595 1569 1536 1535 1555 1561 1531 1509 1488 1482 1498 1527 1552
1952 1883 1835 1838 1806 1781 1771 1763 1763 1764 1759 1752 1746 1732 1727 1725 1713 1713 1715 1708 1705 1696 1679 1672 1677 1685 1682 1664 1654 1654 1675 1682 1661 1661 1665 1689 1697 1693 1696 1693 1698 1713 1734 1752 1753 1728 1692 1692 1681 1656 1624 1607 1596 1596 1603 1597 1606 1616 1590 1625 1655 1690 1711 1712 1674 1632 1617 1613 1626 1644 1645 1614 1584 1583 1599 1610 1612 1614 1615 1620 1622 1621 1617 1608 1591 1569 1561 1554 1543 1545 1564 1585 1569 1531 1508 1489 1491 1528 1557 1546
2002 1921 1854 1857 1815 1788 1784 1775 1775 1772 1763 1757 1751 1743 1735 1727 1720 1714 1714 1708 1701 1687 1678 1686 1689 1690 1676 1662 1662 1661 1669 1681 1676 1660 1670 1702 1729 1727 1715 1708 1707 1715 1738 1748 1733 1728 1698 1664 1644 1619 1615 1605 1605 1617 1625 1629 1641 1646 1612 1608 1636 1667 1702 1737 1712 1670 1635 1621 1623 1628 1622 1594 1599 1618 1649 1659 1648 1643 1642 1641 1641 1632 1617 1604 1591 1586 1579 1567 1576 1586 1579 1570 1556 1530 1507 1486 1501 1547 1575 1554
2017 1957 1885 1846 1814 1804 1793 1787 1784 1779 1769 1761 1754 1751 1738 1729 1724 1715 1707 1702 1695 1685 1686 1704 1702 1695 1670 1669 1688 1681 1676 1676 1672 1664 1669 1689 1727 1751 1738 1724 1718 1720 1739 1762 1727 1715 1693 1663 1634 1628 1616 1623 1630 1632 1656 1671 1678 1678 1648 1612 1638 1660 1696 1733 1722 1700 1656 1634 1622 1614 1603 1590 1631 1664 1701 1712 1698 1683 1677 1670 1662 1652 1641 1628 1613 1604 1594 1592 1605 1598 1584 1564 1545 1524 1501 1492 1524 1566 1572 1557
1972 1957 1894 1843 1822 1820 1807 1799 1791 1782 1773 1766 1759 1753 1744 1732 1726 1723 1726 1708 1695 1688 1693 1707 1703 1686 1669 1677 1712 1709 1688 1680 1676 1671 1668 1680 1710 1747 1760 1746 1726 1718 1723 1751 1718 1684 1676 1640 1625 1628 1631 1647 1653 1645 1675 1702 1711 1686 1649 1630 1648 1678 1712 1735 1710 1696 1666 1639 1623 1609 1599 1611 1641 1673 1699 1722 1746 1741 1712 1707 1686 1668 1655 1640 1631 1618 1606 1594 1588 1581 1572 1567 1546 1522 1494 1519 1570 1604 1596 1569
1904 1903 1870 1849 1849 1836 1821 1809 1797 1786 1778 1770 1762 1754 1749 1741 1733 1732 1737 1714 1695 1693 1697 1701 1698 1686 1673 1680 1712 1723 1701 1690 1685 1680 1671 1678 1698 1730 1770 1770 1739 1708 1694 1708 1697 1662 1649 1628 1632 1661 1677 1685 1683 1673 1686 1713 1715 1670 1647 1654 1670 1696 1725 1730 1692 1670 1650 1633 1624 1613 1607 1617 1640 1660 1683 1707 1735 1767 1781 1760 1721 1689 1669 1655 1645 1630 1609 1586 1569 1562 1553 1549 1536 1513 1505 1556 1587 1611 1611 1576
1946 1905 1899 1900 1884 1857 1841 1826 1811 1793 1784 1775 1765 1758 1755 1744 1735 1731 1721 1703 1697 1701 1705 1703 1699 1696 1676 1685 1707 1721 1720 1708 1698 1688 1675 1678 1695 1722 1754 1780 1752 1739 1702 1681 1666 1651 1637 1629 1646 1690 1721 1727 1719 1706 1707 1714 1701 1667 1668 1675 1698 1721 1745 1723 1690 1657 1645 1638 1629 1619 1613 1618 1638 1654 1672 1696 1726 1758 1786 1806 1752 1707 1680 1662 1640 1621 1595 1577 1562 1552 1540 1530 1521 1510 1516 1551 1565 1601 1595 1559
1998 1972 1958 1940 1908 1877 1854 1832 1820 1813 1798 1783 1767 1754 1748 1737 1728 1719 1707 1703 1705 1708 1711 1710 1704 1693 1676 1686 1706 1725 1740 1736 1715 1696 1683 1681 1696 1717 1744 1779 1779 1739 1714 1687 1685 1665 1637 1631 1659 1704 1742 1760 1758 1743 1739 1724 1703 1682 1702 1709 1726 1748 1734 1710 1690 1658 1666 1678 1659 1637 1626 1622 1635 1653 1672 1697 1728 1756 1780 1804 1782 1728 1689 1663 1637 1616 1602 1587 1571 1557 1545 1537 1523 1520 1519 1526 1548 1585 1573 1546
2006 1950 1904 1874 1853 1829 1821 1822 1807 1794 1784 1772 1764 1752 1738 1731 1720 1712 1713 1710 1713 1714 1715 1714 1709 1691 1680 1692 1710 1731 1751 1762 1735 1709 1693 1683 1692 1709 1734 1763 1789 1757 1728 1705 1703 1681 1645 1633 1664 1708 1752 1779 1794 1792 1773 1750 1724 1699 1735 1756 1758 1746 1711 1689 1678 1663 1680 1717 1704 1665 1641 1635 1633 1651 1671 1698 1729 1756 1777 1798 1808 1752 1701 1671 1649 1631 1617 1600 1580 1566 1557 1554 1535 1541 1536 1528 1554 1566 1554 1539
1947 1907 1882 1879 1876 1863 1864 1849 1830 1811 1793 1777 1763 1748 1738 1727 1725 1727 1720 1717 1722 1722 1718 1712 1705 1692 1682 1704 1725 1735 1757 1771 1757 1726 1703 1689 1688 1704 1725 1750 1779 1789 1748 1724 1709 1686 1653 1636 1664 1709 1742 1768 1795 1819 1803 1765 1727 1721 1753 1784 1765 1725 1705 1678 1672 1679 1695 1731 1748 1703 1664 1654 1641 1647 1668 1692 1722 1751 1764 1785 1819 1780 1719 1686 1662 1649 1633 1610 1586 1574 1574 1564 1541 1550 1558 1545 1557 1572 1563 1546
1927 1916 1933 1939 1933 1931 1911 1873 1843 1818 1799 1781 1765 1747 1739 1736 1737 1735 1725 1724 1727 1726 1721 1716 1707 1692 1687 1707 1735 1747 1758 1777 1780 1743 1710 1694 1688 1700 1718 1740 1769 1788 1766 1737 1714 1690 1658 1639 1660 1693 1715 1745 1773 1804 1808 1786 1759 1751 1759 1787 1766 1730 1702 1687 1683 1697 1723 1747 1773 1740 1695 1676 1662 1645 1660 1678 1706 1728 1732 1774 1808 1811 1740 1703 1677 1659 1635 1612 1590 1579 1573 1558 1539 1556 1566 1558 1553 1575 1576 1562
1984 1971 1988 2007 1983 2006 1953 1906 1860 1826 1802 1784 1766 1750 1745 1745 1747 1739 1732 1729 1732 1731 1728 1725 1712 1691 1691 1709 1733 1756 1764 1777 1789 1758 1721 1699 1689 1697 1713 1731 1754 1775 1765 1736 1709 1687 1666 1642 1651 1685 1711 1731 1761 1789 1816 1825 1802 1782 1776 1790 1775 1745 1716 1706 1691 1704 1734 1765 1788 1770 1729 1696 1673 1652 1645 1657 1680 1699 1726 1750 1784 1810 1776 1719 1690 1651 1629 1617 1605 1584 1567 1559 1551 1562 1567 1568 1561 1565 1576 1573
2045 2035 2061 2077 2062 2062 1996 1936 1885 1838 1808 1790 1771 1758 1753 1755 1754 1748 1741 1735 1737 1739 1733 1723 1707 1691 1693 1708 1730 1752 1768 1774 1776 1764 1733 1706 1693 1696 1709 1722 1739 1759 1760 1730 1700 1674 1653 1641 1650 1678 1716 1744 1771 1799 1829 1853 1840 1817 1804 1806 1784 1755 1729 1708 1704 1713 1739 1773 1793 1797 1772 1717 1678 1650 1634 1642 1658 1678 1709 1729 1758 1792 1797 1732 1685 1656 1639 1633 1623 1595 1577 1574 1570 1567 1573 1582 1571 1565 1580 1584
2110 2119 2145 2152 2132 2101 2046 1980 1905 1852 1819 1795 1776 1767 1763 1766 1763 1759 1754 1747 1735 1731 1722 1710 1702 1700 1697 1710 1730 1750 1769 1776 1764 1754 1736 1709 1695 1697 1709 1716 1719 1739 1747 1716 1679 1650 1646 1654 1658 1656 1703 1731 1757 1794 1834 1857 1862 1856 1832 1822 1796 1764 1730 1722 1734 1737 1759 1783 1779 1787 1795 1753 1690 1653 1632 1633 1647 1665 1681 1709 1737 1768 1789 1754 1704 1681 1664 1651 1634 1608 1594 1593 1584 1574 1577 1585 1574 1578 1603 1609
2180 2189 2203 2210 2163 2145 2082 2000 1927 1865 1824 1798 1778 1772 1774 1777 1771 1763 1751 1738 1724 1723 1714 1708 1705 1708 1708 1722 1736 1751 1765 1777 1757 1739 1724 1707 1704 1700 1705 1714 1698 1714 1718 1692 1654 1656 1667 1674 1679 1665 1675 1706 1747 1787 1814 1826 1857 1880 1853 1818 1788 1764 1751 1769 1779 1778 1774 1767 1754 1752 1774 1787 1716 1661 1630 1625 1634 1647 1666 1697 1720 1746 1779 1794 1741 1709 1686 1667 1646 1626 1619 1611 1593 1580 1579 1580 1577 1597 1629 1635
2255 2229 2177 2126 2065 2045 2065 2022 1934 1869 1822 1799 1788 1782 1787 1783 1775 1764 1753 1738 1730 1729 1723 1717 1711 1710 1720 1736 1744 1752 1758 1763 1752 1729 1712 1715 1732 1711 1693 1694 1684 1688 1679 1664 1665 1683 1689 1692 1697 1699 1671 1700 1743 1769 1784 1815 1850 1876 1868 1823 1801 1793 1801 1811 1809 1787 1758 1740 1730 1729 1751 1780 1745 1672 1629 1614 1622 1635 1652 1676 1702 1728 1760 1788 1774 1737 1705 1683 1664 1645 1637 1626 1600 1591 1589 1585 1586 1601 1635 1645
2272 2172 2098 2060 2036 1997 2012 1997 1922 1863 1816 1799 1793 1806 1805 1796 1788 1778 1766 1750 1747 1739 1731 1723 1717 1713 1715 1734 1745 1745 1750 1752 1747 1727 1714 1741 1754 1734 1706 1694 1688 1668 1665 1683 1713 1715 1709 1711 1714 1714 1681 1692 1722 1740 1767 1805 1828 1859 1881 1862 1847 1834 1839 1825 1798 1767 1743 1724 1708 1710 1736 1770 1758 1684 1634 1612 1614 1623 1641 1657 1681 1711 1741 1765 1778 1782 1742 1702 1681 1658 1642 1635 1608 1602 1609 1612 1595 1593 1621 1636
2240 2114 2039 2014 1931 1925 1953 1935 1886 1835 1809 1809 1818 1829 1821 1812 1805 1793 1779 1767 1758 1745 1736 1730 1725 1720 1714 1723 1744 1749 1742 1741 1739 1727 1717 1748 1770 1757 1724 1704 1697 1687 1670 1699 1737 1752 1742 1729 1730 1722 1695 1685 1703 1735 1760 1786 1821 1861 1897 1891 1855 1836 1832 1809 1776 1754 1740 1730 1698 1690 1724 1759 1758 1691 1644 1616 1609 1609 1623 1642 1667 1698 1717 1729 1753 1786 1774 1725 1703 1679 1652 1640 1625 1627 1624 1624 1616 1601 1604 1622
2168 2075 1997 1997 1995 1932 1866 1852 1848 1847 1849 1848 1849 1848 1837 1829 1825 1811 1792 1779 1766 1753 1746 1741 1735 1735 1728 1722 1739 1753 1740 1735 1731 1724 1725 1749 1773 1777 1747 1724 1709 1689 1675 1697 1740 1770 1775 1761 1745 1729 1715 1707 1704 1739 1775 1795 1834 1876 1912 1901 1838 1802 1786 1778 1760 1734 1716 1715 1694 1674 1703 1726 1730 1697 1642 1612 1598 1600 1611 1635 1664 1677 1686 1706 1744 1783 1794 1763 1726 1691 1661 1644 1624 1615 1609 1612 1623 1618 1614 1622
2116 2092 2096 2093 2054 1954 1923 1938 1906 1911 1912 1892 1878 1874 1853 1845 1839 1825 1806 1786 1773 1764 1760 1753 1747 1749 1741 1728 1734 1746 1744 1738 1732 1727 1733 1750 1773 1792 1777 1743 1718 1697 1679 1688 1728 1766 1794 1791 1764 1745 1739 1734 1718 1733 1779 1815 1849 1888 1922 1909 1844 1798 1770 1750 1734 1711 1691 1682 1677 1671 1676 1692 1717 1726 1650 1603 1591 1593 1602 1621 1640 1655 1688 1713 1740 1782 1807 1775 1717 1692 1675 1649 1615 1593 1585 1592 1602 1622 1632 1635
2191 2172 2164 2110 2003 1969 1999 1987 1925 1947 1989 1950 1905 1891 1875 1860 1848 1830 1806 1790 1780 1778 1773 1764 1758 1753 1743 1730 1734 1744 1744 1742 1736 1730 1734 1748 1769 1792 1798 1768 1732 1713 1693 1679 1705 1754 1790 1805 1792 1771 1758 1750 1729 1732 1768 1812 1861 1893 1914 1912 1871 1826 1794 1754 1722 1708 1700 1686 1668 1658 1648 1662 1699 1727 1677 1613 1586 1584 1593 1608 1626 1654 1686 1703 1729 1762 1762 1726 1682 1662 1652 1639 1614 1596 1579 1573 1594 1617 1621 1634
2264 2252 2188 2117 2074 2028 2056 2038 1991 1994 2028 2015 1955 1903 1885 1873 1852 1830 1807 1797 1787 1785 1780 1767 1758 1749 1741 1733 1736 1745 1744 1746 1737 1732 1738 1744 1756 1774 1794 1788 1752 1729 1705 1685 1699 1738 1772 1807 1817 1794 1775 1755 1732 1741 1781 1819 1856 1877 1881 1895 1892 1850 1811 1776 1747 1733 1721 1711 1691 1667 1642 1640 1680 1719 1691 1625 1589 1577 1586 1596 1609 1638 1669 1686 1717 1735 1707 1681 1655 1633 1620 1619 1609 1592 1579 1565 1576 1593 1603 1630
2306 2295 2221 2172 2157 2125 2112 2098 2059 2058 2082 2070 1988 1933 1894 1869 1852 1834 1814 1800 1790 1781 1773 1762 1754 1748 1744 1737 1732 1737 1743 1747 1741 1737 1744 1750 1757 1769 1784 1798 1785 1750 1718 1696 1711 1736 1756 1784 1823 1824 1785 1762 1743 1755 1808 1846 1840 1842 1842 1853 1886 1873 1827 1798 1764 1727 1701 1698 1693 1684 1651 1632 1663 1695 1674 1626 1595 1576 1575 1583 1595 1621 1643 1654 1683 1691 1658 1643 1629 1606 1592 1597 1594 1576 1568 1556 1552 1565 1590 1628
2282 2320 2308 2258 2217 2199 2187 2168 2155 2146 2126 2094 2032 1967 1902 1863 1850 1832 1812 1798 1788 1775 1767 1763 1756 1751 1746 1739 1732 1731 1734 1739 1739 1739 1745 1752 1762 1775 1788 1803 1807 1778 1736 1704 1705 1730 1745 1764 1800 1823 1806 1779 1757 1766 1815 1856 1830 1802 1807 1823 1864 1869 1827 1796 1761 1712 1686 1675 1664 1661 1645 1626 1640 1661 1651 1613 1592 1578 1572 1575 1581 1604 1620 1636 1663 1654 1620 1609 1601 1587 1579 1590 1598 1583 1564 1552 1544 1554 1588 1631
2237 2293 2331 2321 2294 2246 2204 2195 2154 2100 2072 2051 2025 1973 1899 1855 1834 1814 1801 1791 1785 1777 1770 1765 1758 1751 1744 1737 1733 1731 1734 1734 1730 1730 1739 1742 1747 1767 1785 1802 1821 1806 1758 1721 1704 1714 1728 1745 1773 1806 1819 1799 1774 1774 1799 1838 1829 1785 1781 1810 1845 1838 1792 1761 1747 1717 1679 1657 1646 1643 1640 1620 1615 1624 1620 1597 1581 1575 1570 1569 1569 1578 1592 1620 1638 1616 1590 1584 1581 1574 1569 1583 1599 1597 1576 1555 1542 1551 1594 1630
2204 2249 2295 2336 2300 2208 2136 2111 2084 2034 1991 1967 1963 1937 1877 1835 1819 1804 1799 1793 1785 1779 1771 1765 1759 1752 1743 1735 1732 1733 1737 1734 1726 1722 1726 1727 1730 1745 1765 1784 1814 1824 1780 1729 1707 1705 1712 1726 1744 1777 1816 1809 1781 1772 1777 1807 1824 1779 1757 1790 1824 1813 1761 1725 1716 1705 1669 1641 1628 1620 1624 1619 1600 1600 1602 1586 1576 1574 1569 1567 1563 1562 1569 1585 1590 1577 1570 1568 1567 1562 1557 1569 1584 1585 1578 1564 1545 1546 1580 1596
2177 2216 2268 2331 2297 2206 2121 2036 2001 1972 1928 1902 1890 1873 1855 1830 1818 1820 1817 1808 1798 1793 1784 1771 1760 1752 1743 1735 1732 1734 1738 1733 1723 1717 1716 1720 1721 1725 1740 1757 1780 1809 1790 1740 1708 1698 1701 1711 1727 1750 1788 1808 1791 1770 1762 1769 1800 1773 1739 1766 1791 1789 1747 1697 1687 1673 1638 1620 1610 1605 1604 1608 1603 1590 1585 1583 1580 1578 1575 1570 1565 1561 1558 1556 1555 1554 1554 1554 1554 1551 1550 1554 1559 1558 1559 1559 1545 1539 1552 1563
2133 2187 2255 2319 2302 2223 2144 2050 1981 1942 1925 1908 1883 1857 1841 1835 1845 1847 1836 1831 1828 1821 1803 1781 1766 1755 1743 1736 1734 1733 1736 1733 1724 1714 1708 1708 1711 1714 1720 1731 1757 1810 1813 1756 1712 1692 1688 1699 1716 1734 1759 1792 1793 1771 1753 1744 1766 1767 1725 1734 1754 1751 1729 1677 1650 1633 1611 1616 1620 1616 1614 1604 1608 1612 1601 1595 1592 1588 1582 1577 1574 1566 1561 1554 1548 1546 1543 1544 1544 1539 1538 1538 1541 1541 1539 1540 1535 1529 1535 1543
2131 2169 2232 2294 2294 2223 2142 2059 1983 1963 1984 1983 1929 1864 1859 1872 1876 1884 1879 1869 1856 1845 1822 1794 1777 1761 1746 1738 1734 1733 1733 1729 1724 1717 1705 1698 1698 1700 1705 1718 1750 1789 1803 1769 1721 1692 1681 1686 1698 1714 1736 1764 1809 1790 1750 1737 1736 1740 1714 1705 1718 1704 1673 1642 1627 1621 1628 1652 1660 1652 1651 1639 1643 1652 1621 1612 1620 1606 1598 1593 1584 1574 1572 1576 1559 1547 1546 1541 1538 1538 1537 1530 1529 1527 1524 1521 1520 1521 1524 1526
2181 2163 2191 2261 2295 2220 2131 2054 2016 2020 2014 2027 1968 1875 1897 1939 1930 1911 1909 1922 1901 1868 1838 1812 1788 1767 1753 1744 1736 1732 1730 1727 1722 1715 1704 1692 1688 1686 1694 1705 1726 1760 1795 1783 1732 1693 1677 1677 1686 1700 1720 1742 1782 1809 1775 1741 1726 1716 1705 1683 1672 1667 1653 1652 1656 1663 1670 1671 1687 1688 1679 1664 1655 1645 1617 1631 1664 1640 1614 1605 1596 1592 1583 1584 1594 1586 1567 1548 1545 1546 1543 1537 1531 1527 1526 1521 1517 1512 1512 1514
2220 2225 2215 2252 2305 2243 2154 2088 2074 2083 2070 2060 1993 1890 1918 1994 2001 1953 1927 1936 1924 1897 1856 1821 1795 1775 1762 1753 1743 1737 1731 1725 1716 1710 1703 1695 1687 1680 1678 1685 1700 1739 1771 1778 1746 1700 1676 1672 1675 1687 1704 1717 1748 1803 1802 1762 1735 1722 1719 1681 1672 1689 1706 1711 1700 1709 1714 1688 1702 1719 1712 1687 1662 1636 1631 1649 1695 1685 1648 1621 1609 1604 1595 1590 1603 1623 1598 1560 1551 1554 1551 1547 1541 1539 1537 1534 1528 1518 1519 1509
2221 2259 2262 2281 2308 2238 2169 2141 2139 2143 2119 2077 2002 1921 1948 2026 2048 1999 1950 1929 1910 1892 1859 1826 1804 1789 1775 1763 1752 1744 1737 1732 1732 1724 1711 1700 1689 1681 1672 1672 1682 1716 1746 1755 1751 1712 1678 1668 1670 1678 1692 1706 1730 1771 1821 1793 1752 1737 1737 1687 1697 1734 1759 1762 1743 1741 1736 1711 1721 1739 1732 1699 1675 1652 1649 1671 1704 1717 1694 1654 1629 1615 1602 1597 1605 1620 1603 1566 1557 1562 1562 1557 1554 1549 1544 1541 1540 1536 1537 1521
2214 2247 2278 2315 2332 2302 2240 2211 2206 2197 2129 2064 1986 1947 1987 2056 2086 2055 1987 1928 1892 1876 1855 1836 1814 1796 1783 1774 1761 1752 1746 1738 1734 1728 1716 1705 1693 1683 1674 1667 1672 1695 1716 1733 1756 1732 1687 1663 1664 1671 1681 1695 1714 1742 1799 1794 1766 1748 1741 1689 1696 1742 1780 1804 1800 1784 1752 1735 1750 1759 1749 1724 1698 1674 1652 1670 1709 1747 1736 1691 1653 1629 1615 1610 1605 1607 1580 1571 1580 1582 1579 1574 1569 1561 1554 1550 1550 1549 1545 1533
2214 2238 2272 2319 2373 2355 2314 2304 2269 2206 2176 2081 2019 2001 2040 2104 2156 2103 2019 1951 1912 1875 1859 1840 1820 1802 1788 1782 1770 1759 1750 1741 1736 1731 1717 1706 1697 1684 1674 1662 1662 1671 1692 1733 1753 1748 1699 1663 1658 1665 1672 1685 1702 1721 1763 1801 1779 1747 1730 1698 1693 1735 1776 1811 1833 1827 1785 1761 1770 1776 1761 1736 1702 1679 1668 1686 1728 1756 1758 1727 1680 1646 1627 1615 1603 1586 1581 1599 1626 1610 1602 1595 1585 1578 1572 1565 1560 1556 1545 1533
2231 2263 2297 2354 2421 2408 2388 2369 2326 2276 2218 2134 2083 2063 2084 2137 2195 2127 2045 1954 1908 1886 1878 1865 1836 1816 1801 1784 1775 1765 1753 1743 1737 1734 1717 1704 1695 1683 1673 1661 1659 1662 1686 1724 1755 1743 1709 1669 1652 1658 1667 1677 1689 1709 1739 1794 1779 1739 1713 1697 1689 1723 1757 1785 1822 1841 1830 1809 1801 1794 1762 1718 1707 1702 1685 1695 1735 1769 1780 1747 1695 1657 1635 1616 1606 1588 1594 1621 1657 1652 1633 1622 1610 1598 1588 1580 1568 1552 1544 1551
2266 2317 2359 2420 2476 2458 2420 2417 2392 2347 2278 2245 2199 2153 2132 2175 2201 2122 2023 1979 1957 1928 1900 1886 1852 1826 1811 1794 1779 1768 1756 1746 1739 1731 1715 1703 1692 1682 1671 1662 1654 1656 1667 1700 1736 1737 1708 1674 1649 1648 1657 1665 1672 1693 1720 1767 1768 1732 1704 1688 1691 1707 1728 1758 1791 1811 1841 1853 1835 1799 1768 1737 1741 1731 1707 1701 1732 1786 1792 1752 1702 1659 1637 1620 1611 1600 1599 1623 1655 1682 1690 1668 1637 1616 1602 1591 1576 1553 1554 1574
2322 2380 2447 2457 2421 2398 2388 2407 2431 2425 2379 2330 2286 2247 2232 2236 2193 2114 2054 2065 2039 1972 1918 1884 1851 1835 1818 1803 1784 1769 1757 1747 1738 1733 1716 1704 1692 1679 1667 1660 1651 1650 1655 1676 1705 1719 1708 1697 1658 1640 1643 1654 1662 1680 1704 1738 1766 1726 1697 1683 1686 1693 1705 1732 1754 1768 1804 1857 1848 1801 1776 1773 1766 1741 1721 1724 1745 1787 1797 1741 1698 1669 1642 1625 1613 1601 1600 1617 1635 1668 1700 1710 1673 1642 1621 1602 1587 1571 1568 1580
2372 2445 2470 2406 2353 2338 2350 2381 2407 2423 2447 2419 2366 2331 2327 2289 2211 2167 2174 2109 2038 1968 1913 1875 1859 1851 1829 1805 1785 1770 1758 1747 1735 1728 1713 1704 1691 1677 1666 1658 1650 1645 1646 1659 1672 1682 1684 1705 1670 1639 1635 1644 1653 1667 1686 1714 1758 1725 1695 1679 1674 1680 1689 1707 1726 1752 1790 1838 1860 1841 1818 1804 1774 1750 1750 1758 1764 1785 1801 1765 1720 1678 1643 1624 1611 1600 1596 1601 1612 1636 1668 1697 1702 1676 1642 1614 1594 1585 1574 1575
2446 2512 2451 2378 2316 2287 2312 2343 2378 2400 2430 2444 2465 2452 2401 2343 2285 2222 2165 2058 1991 1958 1924 1905 1890 1863 1839 1815 1793 1775 1761 1750 1736 1724 1710 1704 1693 1677 1667 1661 1654 1646 1641 1641 1647 1655 1660 1677 1679 1647 1630 1637 1644 1652 1668 1696 1739 1728 1696 1672 1663 1667 1675 1692 1723 1755 1795 1825 1863 1888 1858 1816 1785 1786 1788 1782 1768 1767 1775 1757 1722 1681 1642 1621 1608 1599 1595 1589 1597 1614 1641 1665 1704 1690 1648 1616 1587 1575 1565 1563
2492 2503 2433 2366 2301 2246 2276 2323 2355 2380 2403 2429 2455 2474 2465 2372 2280 2204 2124 2061 2025 2003 1952 1937 1920 1883 1852 1825 1804 1783 1764 1753 1739 1725 1714 1707 1693 1680 1674 1669 1661 1650 1639 1635 1637 1638 1643 1649 1671 1652 1630 1625 1635 1643 1656 1677 1713 1733 1694 1662 1650 1654 1666 1690 1721 1754 1779 1800 1834 1875 1872 1839 1825 1824 1809 1783 1754 1742 1730 1713 1691 1658 1635 1621 1609 1598 1590 1586 1588 1599 1633 1642 1685 1677 1633 1600 1576 1559 1553 1549
2525 2487 2406 2343 2293 2220 2241 2295 2327 2355 2379 2402 2424 2441 2468 2404 2286 2220 2175 2178 2124 2066 1984 1940 1923 1893 1861 1830 1810 1788 1768 1756 1739 1726 1716 1703 1692 1684 1676 1671 1663 1654 1645 1636 1629 1626 1627 1635 1650 1662 1638 1621 1628 1635 1642 1657 1683 1722 1689 1654 1640 1644 1656 1676 1702 1735 1749 1777 1806 1837 1878 1876 1857 1839 1808 1770 1746 1725 1705 1694 1678 1668 1664 1639 1616 1600 1588 1580 1580 1583 1616 1618 1664 1643 1615 1579 1564 1550 1543 1535
2492 2446 2383 2304 2265 2205 2199 2252 2270 2314 2354 2379 2392 2396 2419 2431 2343 2276 2263 2252 2209 2082 2026 1967 1928 1895 1866 1839 1815 1793 1775 1760 1739 1729 1718 1704 1691 1682 1673 1668 1661 1653 1644 1635 1634 1636 1633 1621 1633 1653 1636 1625 1621 1627 1630 1638 1656 1693 1686 1650 1634 1634 1639 1663 1690 1710 1731 1751 1776 1816 1849 1871 1870 1840 1803 1780 1766 1762 1751 1739 1724 1717 1712 1672 1630 1605 1588 1573 1571 1575 1591 1597 1638 1608 1590 1560 1550 1539 1529 1525
2405 2375 2356 2297 2256 2230 2151 2160 2205 2269 2324 2340 2349 2335 2352 2395 2405 2355 2324 2257 2226 2117 2052 1988 1942 1904 1871 1840 1815 1796 1779 1759 1744 1737 1723 1707 1690 1680 1672 1664 1656 1649 1644 1642 1644 1648 1640 1626 1620 1631 1627 1623 1615 1620 1624 1627 1636 1661 1691 1651 1629 1624 1629 1661 1689 1690 1713 1734 1766 1795 1802 1836 1879 1849 1829 1813 1776 1754 1757 1768 1768 1766 1747 1693 1639 1603 1584 1568 1563 1567 1580 1583 1596 1574 1557 1543 1535 1526 1518 1516
2293 2293 2308 2292 2270 2251 2189 2101 2174 2241 2281 2295 2285 2265 2305 2355 2398 2422 2366 2268 2181 2091 2022 1975 1931 1892 1866 1838 1814 1796 1780 1761 1758 1743 1730 1711 1692 1681 1676 1668 1661 1654 1650 1652 1651 1651 1645 1630 1617 1623 1623 1619 1616 1601 1617 1618 1622 1632 1667 1649 1626 1618 1625 1653 1676 1679 1700 1726 1734 1748 1789 1844 1877 1863 1832 1796 1747 1720 1724 1741 1755 1737 1735 1695 1639 1602 1581 1567 1559 1560 1566 1563 1559 1554 1543 1531 1527 1519 1512 1511
2214 2226 2242 2247 2247 2233 2164 2078 2145 2189 2205 2228 2210 2242 2292 2340 2383 2389 2367 2246 2166 2123 2055 1986 1926 1881 1856 1834 1813 1794 1778 1768 1762 1747 1731 1716 1695 1686 1680 1671 1664 1658 1657 1663 1655 1649 1643 1629 1619 1609 1610 1614 1606 1594 1595 1598 1619 1617 1630 1637 1619 1608 1618 1640 1658 1668 1685 1698 1714 1759 1804 1816 1829 1850 1807 1768 1734 1702 1691 1714 1729 1705 1707 1689 1635 1598 1577 1564 1555 1550 1554 1554 1573 1568 1554 1539 1529 1514 1505 1502
2150 2172 2196 2208 2204 2165 2073 2056 2079 2110 2140 2168 2217 2266 2303 2333 2342 2338 2344 2262 2230 2196 2091 2002 1925 1885 1850 1822 1803 1788 1776 1757 1748 1742 1728 1716 1698 1692 1682 1674 1668 1669 1667 1668 1656 1647 1642 1640 1628 1616 1608 1607 1607 1596 1601 1590 1593 1596 1612 1616 1608 1600 1612 1623 1638 1651 1665 1690 1726 1757 1745 1768 1814 1852 1809 1784 1754 1713 1673 1676 1693 1673 1672 1687 1624 1587 1570 1559 1549 1539 1547 1553 1586 1603 1579 1548 1522 1505 1499 1492
2103 2136 2165 2168 2159 2070 2027 2074 2118 2150 2181 2210 2226 2239 2281 2316 2270 2231 2268 2234 2224 2171 2060 1994 1910 1876 1841 1814 1799 1783 1773 1750 1747 1739 1729 1713 1700 1691 1683 1676 1673 1677 1673 1672 1660 1647 1646 1650 1642 1628 1618 1612 1604 1610 1613 1605 1585 1578 1586 1586 1596 1595 1606 1616 1625 1642 1670 1689 1708 1708 1717 1769 1820 1841 1796 1763 1749 1704 1673 1654 1660 1647 1640 1649 1606 1579 1564 1551 1545 1537 1534 1546 1569 1601 1576 1531 1506 1496 1493 1488
2052 2100 2115 2104 2079 1995 2059 2111 2163 2201 2197 2178 2169 2215 2275 2317 2290 2206 2150 2143 2134 2096 2016 1958 1894 1864 1839 1813 1794 1786 1773 1763 1753 1743 1733 1719 1704 1690 1682 1678 1679 1680 1675 1669 1660 1646 1647 1654 1648 1632 1621 1616 1605 1616 1615 1614 1602 1593 1589 1582 1577 1581 1605 1610 1615 1633 1663 1665 1674 1685 1726 1760 1773 1811 1798 1752 1723 1689 1662 1640 1627 1627 1615 1624 1600 1573 1556 1546 1539 1533 1523 1532 1549 1575 1547 1504 1493 1484 1482 1480
2021 2073 2059 2003 1980 2037 2097 2158 2206 2195 2149 2123 2176 2236 2295 2335 2338 2268 2145 2074 2025 2013 1946 1881 1860 1839 1830 1819 1800 1794 1781 1769 1759 1749 1734 1721 1707 1693 1686 1684 1687 1681 1673 1662 1651 1643 1643 1646 1640 1628 1615 1618 1622 1623 1619 1615 1610 1602 1598 1591 1575 1569 1583 1600 1604 1613 1637 1646 1646 1669 1697 1716 1761 1816 1813 1764 1740 1706 1677 1655 1633 1607 1595 1605 1593 1566 1551 1542 1535 1532 1520 1519 1531 1538 1511 1488 1486 1481 1478 1474
1993 2021 1977 1959 2025 2088 2148 2203 2199 2143 2097 2118 2181 2248 2304 2335 2348 2302 2238 2056 1990 1950 1900 1874 1862 1848 1833 1825 1814 1794 1784 1773 1761 1750 1736 1724 1709 1699 1694 1692 1690 1678 1669 1658 1646 1639 1637 1635 1627 1620 1626 1638 1653 1642 1629 1620 1611 1602 1594 1588 1587 1576 1565 1578 1595 1598 1617 1628 1632 1664 1701 1740 1788 1825 1826 1775 1732 1701 1672 1646 1623 1613 1604 1578 1569 1555 1544 1535 1527 1522 1516 1506 1509 1500 1490 1482 1480 1480 1479 1476
1969 1961 1941 2025 2093 2150 2180 2180 2136 2088 2055 2106 2173 2242 2302 2327 2330 2236 2179 2057 1993 1952 1952 1940 1893 1874 1852 1831 1814 1797 1785 1774 1760 1749 1735 1718 1707 1699 1694 1689 1685 1675 1665 1655 1645 1638 1635 1629 1624 1630 1641 1657 1682 1665 1643 1626 1615 1606 1595 1593 1597 1589 1572 1559 1575 1586 1599 1612 1637 1675 1718 1751 1765 1766 1793 1781 1721 1694 1671 1653 1634 1631 1630 1591 1576 1566 1552 1538 1526 1515 1507 1497 1492 1485 1483 1481 1480 1479 1477 1482
1917 1938 2005 2062 2116 2136 2126 2109 2083 2045 2067 2132 2185 2247 2300 2326 2326 2218 2117 2056 2027 2032 2023 1950 1891 1873 1853 1832 1814 1799 1786 1778 1765 1749 1736 1718 1707 1697 1686 1679 1674 1666 1659 1652 1644 1636 1633 1630 1636 1652 1666 1676 1697 1698 1652 1633 1622 1610 1599 1603 1613 1605 1579 1565 1556 1571 1586 1611 1647 1664 1700 1718 1705 1714 1759 1787 1751 1724 1696 1669 1651 1654 1662 1627 1610 1603 1559 1533 1516 1505 1496 1491 1486 1482 1481 1483 1487 1484 1484 1493
1950 2006 2047 2090 2101 2065 2055 2045 2032 2018 2075 2122 2176 2226 2266 2295 2321 2281 2176 2111 2097 2080 2000 1957 1934 1890 1855 1833 1816 1801 1788 1780 1765 1748 1738 1723 1711 1700 1690 1679 1669 1662 1655 1648 1641 1641 1639 1642 1648 1667 1686 1706 1714 1712 1659 1642 1631 1619 1610 1611 1626 1632 1594 1578 1567 1561 1566 1600 1633 1645 1666 1690 1680 1677 1724 1773 1754 1719 1706 1672 1645 1631 1649 1648 1635 1593 1541 1514 1500 1491 1488 1488 1485 1482 1484 1489 1492 1497 1504 1507
1958 1996 2033 2045 2012 1988 1980 1962 1963 1989 2026 2092 2146 2182 2214 2242 2279 2305 2274 2198 2129 2063 2034 2031 1985 1907 1861 1841 1822 1805 1790 1779 1757 1746 1735 1725 1715 1706 1696 1683 1673 1663 1656 1649 1648 1646 1647 1654 1659 1679 1702 1730 1742 1721 1681 1656 1640 1629 1619 1616 1630 1645 1611 1588 1584 1571 1550 1567 1606 1627 1632 1657 1648 1652 1699 1736 1718 1679 1675 1653 1627 1609 1620 1632 1597 1558 1519 1503 1493 1489 1488 1486 1486 1485 1488 1494 1497 1512 1531 1549
1945 1969 1970 1938 1926 1921 1942 1992 2032 2045 2032 2035 2075 2102 2138 2178 2223 2272 2308 2256 2155 2125 2133 2058 1962 1892 1865 1845 1826 1809 1795 1784 1772 1754 1740 1728 1718 1710 1698 1684 1675 1666 1658 1655 1655 1649 1656 1667 1665 1686 1713 1751 1772 1739 1697 1666 1650 1636 1626 1622 1631 1648 1637 1599 1587 1580 1564 1557 1580 1591 1606 1621 1619 1631 1666 1709 1706 1646 1628 1628 1610 1585 1582 1590 1547 1518 1502 1494 1492 1490 1488 1487 1487 1489 1499 1505 1504 1524 1549 1578
1919 1916 1886 1873 1905 1954 1998 2036 2080 2105 2096 2087 2103 2130 2146 2160 2183 2235 2301 2313 2268 2237 2144 2023 1935 1896 1878 1846 1828 1810 1795 1788 1775 1758 1744 1728 1713 1706 1695 1684 1677 1668 1662 1666 1665 1654 1663 1680 1677 1687 1714 1751 1774 1745 1708 1684 1662 1644 1633 1628 1630 1653 1662 1623 1599 1588 1579 1562 1552 1560 1579 1593 1597 1613 1657 1697 1673 1614 1589 1589 1578 1553 1539 1536 1512 1499 1494 1494 1492 1492 1492 1489 1491 1498 1511 1516 1515 1533 1549 1567
1857 1849 1872 1935 1981 2015 2059 2095 2125 2164 2173 2168 2181 2199 2206 2211 2202 2222 2302 2343 2297 2199 2098 1993 1959 1956 1906 1860 1835 1810 1796 1792 1775 1757 1742 1722 1713 1707 1697 1687 1677 1671 1671 1676 1674 1661 1667 1687 1694 1703 1719 1743 1762 1759 1741 1708 1671 1654 1644 1634 1631 1648 1674 1660 1616 1603 1585 1565 1549 1543 1547 1564 1579 1604 1637 1655 1627 1582 1555 1543 1537 1520 1508 1504 1499 1498 1496 1495 1493 1493 1496 1500 1510 1522 1523 1520 1517 1537 1555 1561
1836 1886 1939 1989 2041 2082 2117 2141 2147 2133 2093 2103 2150 2219 2273 2281 2258 2248 2305 2329 2229 2126 2075 2023 2030 2019 1939 1882 1852 1821 1801 1797 1780 1760 1744 1730 1727 1715 1704 1693 1682 1676 1679 1686 1682 1668 1672 1688 1706 1718 1730 1747 1767 1777 1772 1738 1684 1667 1658 1643 1631 1639 1677 1688 1643 1621 1599 1588 1575 1554 1533 1535 1554 1568 1588 1603 1581 1549 1527 1519 1514 1506 1502 1501 1500 1500 1496 1494 1494 1499 1506 1518 1534 1537 1531 1529 1526 1528 1543 1561
1884 1920 1956 1992 2024 2049 2058 2049 2042 2044 2067 2132 2156 2192 2267 2316 2319 2307 2326 2325 2236 2150 2121 2119 2096 2037 1951 1896 1869 1834 1808 1799 1782 1763 1748 1739 1736 1724 1709 1697 1687 1686 1691 1688 1679 1674 1676 1688 1709 1726 1736 1747 1773 1773 1762 1752 1698 1672 1668 1650 1625 1627 1656 1694 1679 1636 1619 1604 1592 1586 1570 1546 1534 1527 1541 1551 1533 1520 1515 1512 1509 1506 1505 1504 1502 1500 1496 1499 1509 1517 1522 1528 1537 1539 1538 1546 1552 1541 1532 1547
1865 1894 1915 1929 1950 1970 1966 1987 2028 2045 2110 2186 2212 2218 2261 2322 2353 2372 2377 2368 2315 2245 2208 2188 2115 2018 1940 1901 1878 1837 1813 1803 1785 1765 1752 1746 1742 1727 1713 1703 1692 1694 1698 1686 1678 1678 1682 1690 1706 1720 1722 1731 1753 1742 1731 1737 1694 1661 1661 1645 1618 1619 1636 1681 1702 1664 1640 1619 1603 1610 1603 1575 1570 1557 1532 1517 1519 1516 1514 1512 1509 1507 1506 1504 1503 1504 1506 1516 1529 1536 1539 1538 1541 1550 1556 1561 1566 1565 1552 1535
1827 1847 1870 1915 1946 1975 2012 2056 2124 2105 2105 2207 2270 2270 2274 2336 2394 2430 2442 2418 2377 2280 2156 2115 2068 1992 1927 1900 1884 1847 1826 1810 1790 1773 1760 1749 1739 1728 1717 1707 1698 1702 1700 1683 1679 1683 1690 1697 1703 1704 1697 1701 1714 1698 1694 1714 1681 1641 1641 1636 1614 1611 1627 1653 1698 1696 1660 1636 1611 1620 1626 1597 1572 1552 1535 1525 1520 1516 1515 1513 1508 1507 1507 1509 1515 1524 1533 1542 1554 1559 1560 1559 1562 1569 1575 1577 1577 1575 1572 1552
1898 1919 1930 1957 2009 2036 2036 2060 2141 2165 2138 2191 2265 2313 2324 2350 2412 2464 2456 2383 2323 2261 2169 2077 2000 1951 1915 1887 1864 1843 1824 1809 1793 1777 1765 1752 1739 1729 1719 1709 1704 1706 1703 1690 1682 1687 1696 1700 1696 1685 1677 1682 1685 1664 1675 1702 1664 1623 1621 1623 1607 1598 1611 1633 1671 1694 1675 1642 1617 1623 1650 1633 1594 1571 1552 1540 1531 1520 1513 1513 1512 1510 1513 1520 1535 1564 1585 1591 1593 1595 1596 1594 1592 1594 1592 1591 1589 1585 1580 1571
1957 1983 1998 2007 2045 2079 2096 2104 2132 2190 2181 2170 2218 2291 2352 2383 2421 2483 2454 2376 2294 2194 2192 2124 1967 1901 1897 1882 1852 1834 1821 1812 1796 1777 1768 1753 1738 1727 1717 1711 1714 1711 1704 1694 1687 1691 1696 1695 1688 1673 1657 1665 1665 1643 1661 1676 1641 1607 1598 1603 1598 1585 1592 1613 1639 1680 1672 1632 1618 1627 1651 1639 1613 1592 1557 1535 1525 1515 1514 1515 1515 1516 1518 1545 1570 1590 1627 1644 1652 1665 1673 1651 1626 1625 1619 1608 1598 1590 1584 1579
2006 2042 2064 2073 2092 2126 2153 2165 2184 2221 2220 2222 2257 2292 2350 2405 2443 2503 2463 2392 2305 2151 2077 2032 1958 1933 1918 1896 1879 1857 1840 1824 1796 1775 1766 1749 1734 1725 1719 1720 1723 1714 1702 1694 1685 1687 1683 1670 1670 1668 1642 1639 1643 1632 1638 1635 1615 1595 1581 1581 1579 1572 1574 1588 1612 1654 1652 1619 1607 1616 1630 1604 1576 1565 1543 1524 1514 1512 1518 1521 1521 1522 1537 1547 1558 1577 1597 1624 1641 1667 1692 1701 1698 1674 1646 1628 1612 1599 1592 1588
2053 2097 2129 2145 2165 2192 2219 2240 2253 2270 2271 2274 2306 2342 2377 2412 2451 2506 2435 2338 2256 2166 2093 2026 2026 2020 1958 1902 1873 1854 1843 1822 1794 1774 1758 1746 1736 1728 1729 1731 1721 1705 1694 1684 1674 1672 1663 1649 1650 1655 1647 1624 1614 1614 1614 1606 1593 1581 1571 1565 1562 1558 1557 1564 1584 1625 1639 1615 1590 1591 1610 1590 1553 1532 1520 1515 1512 1512 1522 1526 1537 1542 1549 1560 1577 1587 1610 1627 1633 1648 1677 1710 1729 1714 1682 1653 1632 1620 1609 1599
2100 2133 2139 2144 2153 2174 2218 2270 2316 2352 2350 2336 2339 2359 2371 2395 2434 2487 2453 2366 2288 2231 2211 2163 2110 2034 1956 1906 1868 1849 1836 1812 1789 1770 1757 1750 1740 1732 1732 1726 1711 1693 1681 1670 1659 1650 1640 1631 1632 1637 1639 1624 1612 1593 1583 1580 1573 1566 1560 1557 1555 1547 1544 1550 1560 1597 1620 1604 1578 1573 1588 1572 1540 1520 1513 1514 1515 1529 1534 1532 1544 1557 1580 1582 1599 1611 1617 1648 1674 1680 1693 1715 1741 1757 1746 1707 1672 1650 1627 1610
2068 2034 2025 2043 2069 2103 2156 2224 2294 2362 2373 2338 2316 2317 2334 2376 2397 2421 2464 2441 2375 2317 2232 2152 2079 1990 1928 1897 1866 1839 1817 1797 1776 1761 1756 1750 1740 1730 1722 1711 1697 1683 1672 1659 1648 1639 1620 1609 1607 1611 1616 1614 1605 1583 1561 1553 1550 1550 1545 1540 1541 1537 1534 1537 1542 1568 1583 1579 1564 1557 1560 1548 1528 1517 1513 1518 1533 1556 1543 1539 1554 1577 1611 1617 1611 1634 1647 1667 1699 1713 1723 1742 1757 1759 1759 1771 1730 1674 1642 1624
1958 1950 1969 2011 2055 2101 2161 2226 2300 2331 2306 2286 2271 2252 2284 2346 2333 2348 2421 2478 2448 2347 2239 2115 2021 1948 1904 1887 1862 1837 1816 1791 1766 1750 1742 1735 1727 1718 1706 1693 1681 1671 1662 1657 1654 1647 1642 1632 1613 1591 1579 1584 1577 1560 1546 1538 1535 1536 1535 1531 1532 1532 1530 1530 1530 1541 1547 1545 1545 1543 1538 1527 1517 1516 1517 1527 1552 1574 1552 1544 1568 1610 1651 1656 1643 1662 1689 1699 1724 1726 1715 1720 1733 1735 1730 1772 1758 1698 1662 1640
1919 1967 2023 2068 2116 2148 2194 2263 2319 2285 2247 2248 2223 2208 2256 2297 2264 2295 2378 2453 2443 2358 2253 2135 2017 1939 1906 1876 1864 1850 1828 1790 1760 1740 1724 1714 1708 1700 1693 1684 1676 1672 1671 1670 1665 1661 1662 1648 1620 1595 1568 1555 1545 1540 1537 1532 1530 1530 1531 1530 1531 1530 1528 1527 1526 1525 1528 1532 1532 1529 1524 1519 1518 1520 1527 1544 1574 1587 1557 1556 1583 1628 1669 1683 1675 1681 1709 1716 1716 1714 1693 1686 1707 1719 1709 1737 1770 1740 1689 1659
1963 2011 2049 2094 2157 2204 2240 2309 2307 2237 2196 2206 2166 2186 2251 2232 2214 2268 2366 2399 2361 2300 2243 2110 1993 1929 1888 1854 1843 1828 1807 1781 1755 1736 1719 1703 1690 1685 1685 1685 1683 1682 1677 1667 1659 1665 1660 1632 1607 1593 1563 1544 1538 1532 1531 1535 1535 1532 1531 1534 1535 1535 1533 1531 1528 1525 1522 1522 1522 1521 1522 1524 1523 1531 1555 1572 1589 1596 1562 1567 1593 1621 1654 1696 1724 1732 1730 1708 1688 1700 1689 1671 1686 1695 1693 1719 1762 1772 1739 1704
2012 2049 2099 2136 2183 2253 2309 2316 2279 2215 2142 2137 2124 2191 2197 2155 2192 2261 2334 2367 2278 2213 2197 2046 1940 1896 1861 1848 1812 1786 1767 1760 1746 1730 1714 1694 1671 1671 1679 1678 1675 1669 1657 1649 1647 1650 1639 1613 1591 1574 1550 1537 1534 1533 1541 1542 1546 1550 1552 1554 1555 1554 1551 1546 1540 1538 1532 1526 1525 1527 1529 1531 1533 1555 1586 1595 1594 1594 1573 1566 1588 1619 1660 1698 1724 1746 1730 1693 1664 1672 1674 1662 1662 1670 1692 1710 1731 1749 1763 1758
2089 2095 2145 2194 2234 2296 2313 2256 2212 2185 2135 2110 2112 2148 2108 2120 2184 2251 2304 2293 2219 2169 2121 1985 1901 1862 1841 1832 1802 1768 1740 1727 1713 1710 1700 1684 1668 1653 1662 1661 1654 1646 1636 1629 1629 1631 1616 1593 1574 1557 1539 1533 1535 1538 1551 1561 1576 1592 1594 1583 1580 1587 1586 1575 1567 1555 1549 1546 1541 1538 1536 1546 1548 1562 1574 1591 1592 1586 1589 1568 1577 1609 1655 1669 1685 1703 1687 1659 1650 1654 1654 1653 1653 1662 1686 1698 1707 1705 1729 1754
2146 2170 2193 2221 2228 2257 2265 2208 2136 2138 2117 2076 2100 2073 2065 2112 2173 2231 2274 2234 2165 2129 2051 1936 1864 1827 1810 1800 1787 1774 1745 1707 1682 1683 1680 1670 1663 1636 1634 1639 1634 1625 1619 1613 1610 1609 1592 1571 1551 1538 1533 1533 1537 1546 1566 1597 1615 1628 1624 1602 1603 1617 1617 1601 1581 1563 1572 1594 1578 1563 1546 1559 1562 1569 1583 1599 1600 1604 1611 1599 1572 1595 1630 1644 1656 1654 1646 1639 1640 1645 1646 1650 1652 1659 1665 1673 1679 1678 1692 1715
2202 2229 2208 2172 2166 2223 2237 2184 2101 2078 2086 2055 2107 2038 2042 2096 2153 2214 2215 2184 2149 2043 1972 1880 1817 1791 1778 1771 1762 1767 1754 1714 1677 1657 1659 1655 1647 1641 1613 1617 1619 1613 1606 1599 1592 1581 1572 1557 1539 1533 1536 1539 1549 1571 1587 1616 1637 1650 1646 1628 1622 1626 1616 1603 1584 1582 1592 1617 1612 1583 1552 1568 1580 1581 1589 1600 1610 1631 1639 1624 1600 1582 1589 1604 1622 1633 1632 1636 1638 1644 1649 1662 1667 1664 1664 1674 1677 1684 1683 1693
2185 2173 2141 2097 2135 2189 2215 2174 2098 2024 2017 2023 2086 2011 2013 2063 2128 2203 2161 2117 2096 1971 1880 1816 1772 1761 1764 1761 1749 1733 1720 1695 1672 1648 1639 1636 1631 1626 1614 1600 1601 1600 1593 1583 1571 1561 1550 1539 1533 1538 1543 1553 1571 1596 1623 1631 1645 1667 1692 1676 1657 1635 1618 1609 1606 1604 1604 1610 1625 1588 1563 1581 1596 1602 1609 1618 1632 1651 1675 1650 1623 1592 1606 1612 1619 1625 1634 1647 1654 1659 1661 1680 1693 1679 1678 1705 1718 1707 1699 1700
2149 2117 2060 2071 2106 2129 2161 2143 2084 2029 1965 2009 2042 1979 2001 2047 2101 2181 2148 2060 1976 1909 1796 1761 1740 1741 1756 1759 1761 1729 1688 1664 1656 1645 1629 1620 1617 1610 1602 1583 1587 1579 1570 1563 1553 1544 1540 1536 1538 1543 1552 1570 1590 1619 1649 1650 1657 1677 1709 1710 1683 1648 1637 1635 1638 1624 1612 1609 1595 1578 1586 1605 1614 1625 1630 1640 1654 1670 1666 1655 1631 1601 1621 1632 1635 1644 1650 1660 1686 1697 1687 1697 1712 1693 1697 1737 1748 1710 1716 1730
2092 2071 2004 2024 2062 2070 2107 2125 2055 2003 1912 1942 1991 1931 1983 2044 2097 2149 2072 1981 1891 1815 1743 1710 1708 1718 1733 1742 1744 1730 1683 1640 1637 1633 1625 1611 1603 1596 1589 1585 1577 1572 1559 1547 1541 1539 1537 1538 1545 1553 1571 1580 1608 1638 1658 1676 1679 1686 1712 1732 1707 1680 1667 1664 1656 1633 1619 1610 1585 1595 1619 1636 1634 1648 1655 1660 1671 1664 1645 1639 1632 1614 1632 1672 1681 1670 1689 1685 1702 1733 1721 1719 1720 1710 1730 1759 1739 1719 1725 1752
2032 2030 1987 1977 2001 2009 2064 2117 2097 2041 1955 1875 1885 1932 1991 2035 2095 2088 1938 1851 1784 1723 1703 1680 1677 1709 1719 1712 1700 1688 1664 1631 1612 1617 1612 1602 1591 1583 1571 1563 1560 1553 1544 1543 1539 1539 1540 1549 1559 1568 1583 1605 1622 1634 1659 1690 1707 1704 1728 1760 1744 1715 1691 1678 1658 1639 1626 1617 1606 1617 1639 1664 1667 1674 1680 1682 1676 1660 1650 1649 1632 1628 1642 1680 1722 1729 1727 1720 1718 1765 1779 1752 1736 1731 1761 1768 1744 1744 1730 1760
1978 1978 1980 1923 1938 1998 2063 2125 2125 2065 2002 1927 1885 1840 1924 2002 2082 1964 1786 1717 1692 1663 1660 1651 1659 1696 1695 1668 1654 1645 1636 1623 1594 1593 1590 1580 1577 1571 1566 1558 1553 1548 1543 1540 1543 1548 1556 1566 1578 1594 1605 1628 1641 1646 1660 1689 1724 1738 1742 1787 1767 1727 1699 1680 1667 1653 1639 1634 1625 1626 1645 1672 1722 1725 1709 1708 1692 1680 1673 1669 1639 1634 1646 1671 1703 1737 1768 1772 1742 1776 1818 1780 1756 1756 1791 1780 1767 1758 1738 1766
1919 1916 1915 1898 1952 2018 2083 2153 2138 2099 2058 1995 1898 1772 1869 1944 1950 1756 1674 1642 1632 1621 1621 1621 1635 1644 1638 1629 1628 1620 1608 1596 1584 1569 1566 1564 1566 1564 1559 1554 1549 1545 1543 1546 1554 1563 1567 1587 1600 1616 1623 1638 1658 1667 1666 1686 1723 1766 1774 1800 1790 1748 1719 1692 1677 1664 1659 1649 1643 1624 1647 1670 1706 1762 1755 1734 1710 1696 1694 1672 1644 1637 1652 1675 1693 1728 1772 1809 1772 1786 1830 1827 1789 1787 1828 1805 1786 1766 1752 1782
1862 1846 1874 1918 1979 2036 2106 2104 2061 2056 2049 1922 1808 1768 1856 1840 1715 1637 1621 1604 1594 1591 1592 1599 1599 1595 1595 1592 1587 1586 1578 1567 1561 1554 1555 1556 1555 1555 1552 1548 1544 1545 1548 1559 1571 1583 1587 1604 1619 1631 1641 1650 1672 1685 1681 1686 1717 1759 1789 1800 1812 1789 1748 1705 1687 1677 1683 1662 1651 1623 1646 1666 1704 1747 1792 1748 1729 1713 1704 1685 1653 1641 1658 1695 1727 1752 1785 1828 1821 1814 1851 1874 1829 1823 1846 1825 1802 1779 1772 1795
1821 1864 1924 1976 2017 2062 2039 1973 1972 2003 1972 1830 1713 1738 1731 1670 1608 1590 1581 1574 1570 1571 1575 1579 1576 1569 1569 1563 1556 1561 1559 1556 1557 1560 1558 1554 1551 1550 1547 1547 1553 1553 1565 1579 1591 1604 1614 1619 1633 1649 1661 1663 1677 1699 1698 1703 1721 1763 1796 1794 1813 1811 1751 1716 1703 1692 1692 1666 1648 1639 1642 1661 1698 1736 1778 1769 1738 1717 1706 1705 1669 1645 1654 1692 1732 1763 1790 1817 1848 1861 1880 1902 1890 1879 1863 1834 1810 1794 1803 1819
