ncols 100
nrows 100
xllcorner 457900
yllcorner 5716800
cellsize 100
NODATA_value -9999
2298 2287 2274 2254 2224 2195 2184 2202 2242 2272 2298 2327 2332 2291 2243 2202 2159 2132 2114 2118 2138 2144 2163 2198 2234 2259 2290 2335 2286 2212 2195 2178 2147 2123 2110 2128 2122 2109 2108 2116 2107 2071 2028 2013 2045 2077 2097 2085 2059 2037 2009 1968 1925 1900 1913 1985 2049 2127 2197 2241 2268 2294 2304 2291 2267 2253 2236 2219 2208 2172 2116 2094 2134 2151 2160 2174 2180 2127 2070 2045 2027 2024 2054 2094 2080 2027 1966 1907 1866 1836 1826 1821 1802 1768 1751 1740 1730 1720 1712 1704
2384 2372 2348 2321 2294 2264 2246 2266 2310 2346 2362 2377 2369 2333 2288 2234 2191 2164 2137 2140 2166 2188 2207 2231 2284 2323 2366 2363 2265 2210 2200 2179 2152 2128 2109 2101 2118 2117 2094 2078 2065 2042 2021 1998 1989 2020 2054 2062 2054 2051 2036 1999 1934 1892 1925 1993 2052 2125 2196 2233 2252 2268 2271 2246 2205 2189 2170 2143 2165 2128 2077 2091 2136 2181 2207 2215 2218 2203 2140 2113 2121 2144 2160 2144 2094 2032 1977 1948 1932 1893 1849 1823 1797 1771 1757 1746 1739 1733 1722 1708
2412 2414 2408 2385 2355 2331 2322 2336 2360 2377 2387 2389 2378 2360 2332 2286 2233 2196 2179 2188 2211 2241 2277 2312 2348 2379 2394 2364 2273 2202 2189 2171 2149 2127 2107 2086 2094 2113 2111 2098 2083 2071 2057 2030 1990 1968 1974 1999 2013 2019 2014 1984 1914 1879 1948 2021 2089 2150 2189 2209 2220 2223 2225 2200 2153 2134 2120 2097 2106 2075 2075 2125 2154 2185 2223 2246 2259 2275 2246 2192 2216 2239 2224 2157 2088 2050 2016 1981 1959 1908 1840 1802 1796 1790 1770 1756 1747 1738 1724 1707
2395 2399 2404 2403 2397 2383 2367 2363 2372 2380 2387 2386 2379 2369 2351 2324 2287 2258 2257 2264 2284 2314 2341 2364 2374 2372 2372 2338 2248 2187 2176 2161 2133 2118 2113 2091 2074 2086 2107 2112 2114 2116 2103 2073 2031 1987 1953 1941 1944 1957 1966 1952 1900 1878 1947 2020 2089 2143 2171 2179 2174 2169 2168 2149 2113 2096 2065 2033 2038 2056 2104 2157 2177 2195 2220 2248 2272 2298 2323 2314 2278 2240 2202 2136 2073 2030 1976 1918 1886 1861 1826 1814 1820 1806 1779 1764 1751 1735 1721 1709
2375 2379 2384 2390 2392 2391 2385 2373 2370 2374 2377 2378 2373 2366 2352 2335 2325 2318 2317 2323 2334 2345 2347 2346 2347 2351 2355 2313 2218 2162 2156 2147 2126 2116 2108 2101 2076 2064 2080 2099 2111 2124 2127 2107 2076 2038 1994 1954 1937 1923 1908 1900 1877 1878 1940 2011 2078 2122 2136 2133 2120 2110 2104 2098 2074 2041 2012 2002 2036 2063 2104 2160 2194 2206 2219 2243 2270 2297 2342 2341 2264 2203 2153 2095 2037 1987 1926 1879 1860 1851 1856 1859 1834 1805 1783 1767 1751 1735 1720 1707
2351 2355 2362 2370 2375 2380 2384 2376 2366 2363 2367 2369 2366 2360 2348 2334 2323 2321 2321 2320 2319 2319 2322 2328 2333 2339 2339 2285 2190 2152 2149 2132 2118 2113 2104 2096 2080 2060 2057 2069 2092 2109 2123 2122 2110 2086 2048 2014 1987 1955 1931 1910 1872 1875 1938 2005 2062 2084 2078 2072 2058 2051 2037 2018 2005 1972 1971 1991 1998 2022 2056 2097 2150 2197 2223 2240 2265 2293 2336 2330 2248 2177 2124 2066 2009 1966 1933 1916 1908 1903 1917 1908 1853 1815 1793 1774 1753 1738 1726 1712
2320 2326 2339 2351 2357 2365 2372 2370 2361 2356 2357 2359 2358 2352 2337 2326 2314 2304 2302 2301 2304 2306 2310 2316 2321 2326 2323 2277 2189 2146 2143 2125 2107 2099 2096 2089 2078 2053 2040 2050 2065 2085 2100 2108 2112 2109 2088 2045 2001 1975 1960 1930 1874 1877 1946 1998 2024 2025 2018 2016 2002 1990 1968 1943 1943 1961 1999 2026 2041 2030 2031 2063 2101 2160 2214 2240 2260 2287 2325 2346 2274 2178 2124 2073 2020 1985 1975 1969 1960 1962 1980 1921 1852 1842 1809 1779 1763 1749 1736 1719
2294 2301 2313 2326 2337 2349 2359 2361 2355 2350 2349 2350 2350 2342 2325 2312 2299 2291 2293 2293 2293 2296 2300 2304 2308 2314 2312 2273 2191 2138 2130 2118 2101 2090 2087 2078 2066 2054 2044 2031 2032 2053 2068 2077 2087 2096 2083 2034 1982 1949 1920 1879 1867 1905 1943 1958 1958 1953 1951 1946 1945 1931 1922 1943 1980 2020 2056 2084 2082 2071 2057 2054 2083 2127 2191 2237 2257 2280 2311 2360 2312 2207 2152 2109 2078 2052 2037 2028 2028 2033 2008 1917 1891 1894 1835 1796 1778 1763 1748 1729
2270 2278 2289 2302 2314 2328 2344 2350 2348 2347 2341 2333 2334 2327 2311 2299 2288 2281 2271 2251 2240 2251 2272 2285 2293 2300 2304 2266 2189 2131 2118 2112 2096 2083 2077 2069 2053 2041 2028 2028 2017 2017 2037 2043 2052 2064 2052 2007 1957 1910 1866 1847 1872 1902 1897 1892 1894 1898 1903 1905 1919 1950 1976 1970 2008 2074 2116 2146 2136 2096 2060 2059 2080 2109 2162 2224 2258 2278 2306 2358 2351 2255 2200 2165 2144 2140 2114 2095 2093 2084 2032 1943 1948 1958 1885 1827 1797 1780 1761 1739
2250 2257 2267 2280 2291 2297 2314 2332 2341 2344 2340 2331 2320 2311 2299 2288 2280 2261 2224 2185 2164 2171 2198 2228 2260 2283 2293 2263 2195 2129 2105 2097 2084 2072 2062 2053 2041 2027 2014 2017 2009 2001 2012 2017 2020 2030 2021 1980 1929 1872 1845 1862 1873 1877 1884 1899 1909 1922 1946 1974 2003 2027 2040 2028 2015 2052 2127 2191 2192 2144 2099 2075 2079 2099 2139 2201 2251 2284 2313 2350 2377 2328 2261 2215 2206 2218 2206 2180 2145 2106 2057 1997 2008 2004 1934 1868 1820 1796 1774 1747
2238 2240 2248 2259 2262 2274 2300 2322 2335 2340 2341 2336 2319 2300 2286 2280 2263 2225 2191 2158 2124 2118 2132 2153 2194 2243 2276 2264 2205 2136 2092 2076 2066 2055 2043 2039 2029 2015 2004 2004 1998 1988 1996 1997 1994 2004 1998 1957 1904 1850 1850 1881 1896 1913 1944 1973 1993 2004 2022 2047 2069 2090 2106 2102 2091 2075 2115 2216 2253 2203 2147 2114 2097 2110 2136 2172 2225 2271 2312 2352 2402 2401 2342 2304 2301 2292 2271 2260 2216 2156 2109 2089 2092 2047 1975 1903 1842 1802 1776 1754
2233 2232 2233 2236 2251 2276 2301 2319 2331 2336 2338 2332 2320 2300 2281 2272 2238 2186 2159 2146 2120 2097 2096 2117 2146 2187 2239 2264 2215 2127 2068 2057 2052 2039 2033 2021 2010 2005 1993 1991 1986 1975 1981 1981 1975 1982 1980 1937 1879 1839 1849 1887 1918 1947 1980 2012 2043 2064 2080 2102 2125 2147 2161 2161 2151 2123 2128 2210 2278 2269 2215 2164 2133 2129 2155 2196 2237 2269 2304 2361 2431 2452 2413 2360 2309 2266 2238 2247 2244 2203 2170 2156 2140 2093 2024 1950 1878 1821 1786 1765
2221 2226 2228 2229 2246 2274 2296 2315 2327 2333 2335 2330 2318 2301 2283 2268 2238 2195 2170 2177 2167 2127 2085 2089 2112 2141 2187 2245 2225 2125 2058 2049 2045 2031 2017 2008 2000 1994 1980 1979 1980 1960 1962 1967 1959 1962 1963 1922 1866 1833 1845 1873 1900 1933 1971 2013 2053 2093 2122 2146 2173 2198 2213 2215 2213 2206 2181 2220 2291 2331 2285 2219 2181 2163 2177 2224 2279 2323 2344 2388 2475 2478 2409 2335 2257 2193 2162 2163 2163 2142 2131 2110 2075 2065 2047 1999 1919 1843 1796 1778
2205 2210 2197 2206 2234 2259 2282 2303 2318 2326 2328 2327 2318 2303 2286 2271 2256 2240 2226 2222 2207 2150 2091 2066 2074 2103 2146 2207 2227 2140 2057 2042 2030 2023 2009 1999 1992 1981 1965 1967 1975 1956 1942 1949 1946 1944 1946 1905 1861 1830 1851 1883 1911 1939 1970 2011 2060 2102 2140 2174 2208 2235 2255 2265 2267 2266 2253 2256 2311 2369 2345 2283 2239 2211 2219 2259 2320 2378 2405 2443 2495 2459 2395 2325 2243 2164 2110 2074 2052 2048 2058 2045 2005 1984 1991 1999 1938 1857 1805 1788
2190 2190 2169 2192 2224 2247 2269 2289 2306 2315 2319 2322 2317 2306 2292 2279 2265 2249 2231 2221 2225 2173 2103 2059 2044 2069 2109 2166 2217 2141 2053 2021 2017 2010 1993 1982 1978 1971 1948 1953 1965 1958 1932 1930 1931 1931 1929 1892 1850 1830 1869 1914 1945 1970 1997 2031 2070 2110 2146 2179 2211 2240 2267 2295 2314 2324 2323 2319 2348 2405 2399 2356 2313 2278 2275 2312 2367 2423 2459 2505 2507 2440 2367 2292 2231 2194 2147 2074 2006 1980 1980 1963 1936 1923 1921 1944 1913 1850 1807 1783
2162 2164 2148 2175 2206 2228 2248 2267 2283 2298 2311 2317 2314 2307 2298 2289 2276 2255 2230 2215 2209 2163 2097 2063 2036 2041 2074 2125 2166 2129 2055 2010 2018 2014 1987 1965 1958 1953 1934 1941 1952 1955 1939 1916 1903 1903 1909 1876 1832 1848 1884 1912 1932 1954 1984 2019 2055 2088 2125 2158 2189 2219 2248 2281 2312 2348 2375 2399 2422 2446 2444 2415 2379 2348 2343 2375 2418 2468 2507 2531 2526 2463 2396 2340 2280 2228 2167 2111 2027 1967 1953 1931 1899 1871 1868 1862 1847 1816 1795 1780
2138 2135 2125 2155 2181 2200 2223 2250 2271 2292 2308 2314 2312 2307 2301 2291 2281 2267 2240 2216 2190 2146 2097 2062 2041 2031 2045 2082 2114 2099 2044 2008 2009 2005 1985 1958 1943 1934 1920 1929 1940 1946 1944 1926 1907 1878 1887 1858 1828 1846 1863 1874 1893 1911 1933 1964 2001 2046 2097 2136 2167 2200 2234 2274 2320 2367 2402 2429 2455 2483 2489 2465 2439 2417 2413 2432 2471 2497 2496 2498 2514 2506 2458 2385 2309 2237 2179 2140 2078 2048 2028 1985 1931 1887 1874 1841 1820 1814 1821 1823
2124 2094 2123 2166 2181 2199 2225 2246 2268 2289 2304 2310 2309 2307 2304 2294 2280 2272 2252 2225 2199 2171 2136 2084 2045 2023 2028 2046 2057 2063 2023 1995 1998 1993 1978 1951 1931 1913 1905 1918 1926 1935 1937 1933 1925 1898 1865 1838 1824 1837 1860 1882 1911 1929 1940 1950 1968 2014 2071 2119 2155 2192 2231 2283 2335 2378 2411 2443 2470 2494 2513 2511 2485 2473 2473 2494 2493 2461 2436 2436 2454 2470 2463 2417 2350 2295 2248 2183 2132 2123 2063 1986 1944 1934 1938 1908 1901 1877 1897 1890
2092 2079 2124 2163 2185 2207 2223 2237 2256 2275 2292 2302 2306 2308 2308 2302 2283 2269 2256 2235 2210 2193 2176 2122 2057 2014 2018 2025 2011 2010 1995 1984 1985 1978 1968 1941 1920 1898 1898 1907 1914 1921 1924 1926 1926 1914 1885 1844 1817 1841 1888 1927 1969 1988 2008 2012 2009 2027 2073 2122 2162 2204 2253 2302 2338 2372 2404 2432 2458 2482 2501 2500 2481 2482 2494 2473 2450 2415 2378 2365 2379 2397 2398 2400 2406 2340 2265 2212 2184 2136 2054 1994 1979 1999 2004 1970 1985 1946 1964 1962
2049 2069 2129 2160 2183 2205 2214 2225 2242 2261 2281 2296 2305 2309 2308 2307 2291 2272 2258 2241 2220 2194 2176 2133 2067 2017 2001 1994 1984 1978 1971 1969 1971 1959 1948 1930 1912 1886 1887 1893 1900 1907 1912 1915 1916 1909 1895 1848 1815 1845 1904 1944 1985 2014 2042 2060 2072 2083 2110 2145 2183 2224 2262 2294 2327 2360 2391 2419 2446 2467 2473 2453 2449 2463 2485 2431 2388 2393 2328 2295 2308 2323 2323 2338 2387 2360 2300 2273 2217 2150 2083 2034 2022 2052 2049 2022 2043 2022 2008 2006
2047 2058 2127 2158 2173 2196 2208 2215 2231 2250 2271 2289 2302 2307 2306 2305 2300 2279 2264 2251 2230 2199 2160 2113 2064 2026 1985 1980 1973 1966 1960 1953 1955 1949 1934 1921 1905 1877 1877 1880 1886 1894 1900 1904 1905 1898 1878 1837 1814 1855 1909 1942 1968 2005 2035 2062 2087 2111 2137 2161 2189 2220 2252 2283 2316 2349 2378 2406 2432 2452 2426 2417 2423 2436 2458 2400 2333 2332 2303 2252 2253 2261 2265 2297 2347 2392 2396 2336 2233 2173 2132 2103 2085 2116 2108 2094 2115 2113 2080 2060
2044 2042 2107 2153 2165 2178 2200 2206 2219 2237 2256 2275 2292 2302 2303 2302 2299 2289 2271 2258 2236 2207 2157 2111 2080 2046 2012 1978 1962 1968 1959 1946 1942 1937 1925 1914 1903 1878 1867 1870 1878 1884 1888 1894 1894 1887 1863 1829 1818 1866 1908 1933 1953 1983 2009 2036 2052 2064 2105 2134 2163 2199 2236 2270 2302 2336 2363 2390 2416 2417 2389 2376 2377 2391 2412 2381 2311 2261 2247 2213 2182 2194 2218 2273 2325 2385 2439 2366 2266 2214 2186 2177 2172 2195 2205 2189 2181 2174 2085 2046
2035 2027 2077 2132 2153 2166 2190 2203 2211 2224 2239 2257 2276 2288 2294 2297 2295 2290 2278 2260 2238 2214 2175 2154 2127 2102 2067 2019 1986 1963 1944 1931 1924 1926 1919 1906 1898 1882 1866 1858 1850 1868 1875 1881 1881 1876 1856 1818 1825 1874 1905 1925 1940 1961 1983 2006 2016 2020 2059 2086 2123 2168 2212 2254 2289 2322 2349 2375 2396 2372 2352 2332 2320 2336 2361 2353 2305 2260 2201 2113 2162 2202 2237 2280 2328 2379 2448 2414 2327 2272 2250 2252 2259 2251 2253 2175 2107 2051 1990 1965
2029 2008 2045 2088 2144 2159 2177 2199 2203 2213 2224 2239 2257 2272 2285 2292 2292 2287 2283 2268 2243 2222 2195 2170 2153 2135 2105 2052 1998 1977 1965 1952 1938 1911 1902 1890 1883 1868 1872 1861 1847 1853 1862 1866 1865 1861 1844 1806 1837 1876 1899 1915 1927 1943 1953 1962 1969 1985 2012 2042 2092 2146 2195 2241 2276 2308 2334 2358 2365 2326 2312 2286 2261 2282 2311 2315 2273 2213 2154 2073 2158 2202 2243 2289 2340 2394 2461 2485 2415 2344 2322 2326 2296 2234 2157 2090 2045 2003 1967 1937
2025 1998 2025 2066 2125 2155 2167 2184 2192 2200 2207 2221 2238 2261 2277 2288 2290 2287 2283 2278 2247 2222 2207 2188 2165 2145 2114 2058 2001 1974 1961 1950 1937 1924 1906 1899 1893 1885 1877 1866 1851 1835 1855 1857 1852 1847 1835 1813 1848 1872 1889 1904 1916 1923 1924 1936 1951 1977 2000 2036 2095 2145 2191 2233 2264 2294 2318 2340 2328 2284 2263 2242 2204 2234 2268 2276 2225 2172 2078 2094 2127 2158 2212 2269 2324 2382 2453 2523 2490 2434 2396 2349 2272 2213 2153 2104 2086 2063 2051 2000
2034 1995 1997 2041 2099 2147 2161 2167 2174 2181 2188 2201 2220 2247 2268 2282 2289 2288 2283 2277 2257 2229 2209 2198 2177 2148 2107 2050 2027 2011 1997 1979 1963 1952 1937 1928 1916 1901 1889 1875 1859 1837 1830 1852 1846 1841 1825 1808 1839 1863 1880 1890 1895 1905 1925 1957 1985 2002 2034 2065 2117 2146 2183 2225 2254 2278 2301 2319 2296 2251 2208 2191 2159 2191 2228 2236 2194 2132 2039 2092 2146 2188 2227 2267 2318 2375 2454 2530 2551 2507 2435 2358 2291 2258 2210 2197 2169 2136 2089 2032
2042 1996 1984 2019 2072 2128 2154 2156 2159 2166 2175 2189 2208 2233 2256 2273 2284 2288 2284 2276 2263 2245 2219 2202 2185 2157 2118 2095 2086 2067 2049 2030 2012 1997 1980 1963 1942 1923 1906 1887 1871 1850 1828 1824 1845 1840 1817 1796 1825 1847 1855 1872 1886 1908 1938 1966 1989 2015 2052 2085 2115 2142 2175 2213 2238 2265 2282 2295 2269 2228 2198 2139 2115 2153 2190 2193 2139 2074 2024 2075 2135 2193 2243 2302 2355 2413 2474 2520 2552 2544 2479 2409 2360 2305 2278 2262 2242 2178 2124 2082
2046 1999 1970 1998 2043 2100 2144 2151 2142 2141 2166 2180 2198 2220 2242 2260 2275 2285 2284 2277 2268 2259 2241 2210 2194 2177 2159 2141 2125 2103 2089 2078 2067 2054 2036 2013 1985 1956 1928 1903 1883 1864 1845 1828 1818 1836 1804 1795 1819 1837 1849 1875 1896 1913 1932 1955 1972 1990 2032 2065 2105 2134 2162 2197 2221 2243 2259 2269 2240 2205 2172 2123 2084 2117 2157 2147 2082 2036 2027 2102 2157 2193 2249 2317 2386 2449 2478 2470 2479 2517 2517 2473 2411 2362 2332 2279 2242 2175 2095 2020
2045 1999 1967 1977 2013 2065 2121 2130 2105 2137 2161 2170 2187 2208 2228 2245 2262 2278 2285 2279 2268 2261 2252 2224 2201 2190 2178 2160 2140 2120 2111 2106 2103 2098 2086 2067 2039 1996 1950 1915 1892 1872 1856 1840 1821 1809 1799 1790 1812 1843 1864 1882 1895 1908 1923 1942 1961 1982 2018 2049 2088 2117 2145 2178 2201 2221 2236 2243 2211 2177 2142 2092 2051 2084 2129 2095 2026 1999 2061 2105 2168 2228 2276 2333 2404 2469 2451 2402 2399 2432 2470 2495 2449 2363 2302 2228 2167 2102 2040 1978
2040 1994 1964 1961 1991 2034 2072 2072 2066 2128 2163 2164 2175 2197 2217 2231 2250 2268 2282 2281 2272 2262 2254 2241 2210 2192 2183 2167 2146 2133 2122 2115 2114 2112 2106 2095 2078 2028 1966 1923 1895 1875 1858 1842 1829 1812 1807 1790 1799 1842 1861 1873 1884 1898 1912 1930 1949 1972 2002 2036 2070 2098 2126 2157 2179 2200 2214 2214 2184 2146 2109 2059 2021 2060 2101 2035 1975 2019 2092 2143 2183 2240 2308 2371 2426 2422 2395 2352 2336 2370 2393 2432 2444 2335 2272 2209 2146 2089 2054 2017
2047 1993 1961 1946 1973 1997 2011 2014 2027 2067 2111 2142 2166 2185 2208 2222 2240 2258 2274 2283 2282 2268 2257 2247 2224 2199 2188 2175 2153 2134 2121 2112 2107 2103 2099 2085 2076 2035 1977 1926 1891 1874 1857 1843 1830 1819 1809 1793 1787 1830 1851 1860 1871 1889 1902 1916 1930 1949 1984 2016 2052 2081 2107 2133 2153 2175 2190 2186 2159 2115 2074 2021 1993 2045 2051 1981 1993 2062 2121 2184 2228 2273 2334 2393 2411 2323 2325 2307 2272 2306 2321 2380 2425 2360 2290 2222 2183 2159 2142 2090
2017 1984 1959 1938 1957 1974 1989 2013 2045 2066 2087 2107 2146 2174 2198 2214 2230 2248 2266 2282 2288 2279 2268 2248 2237 2209 2191 2181 2159 2135 2115 2094 2082 2078 2073 2070 2065 2026 1970 1924 1885 1871 1858 1843 1830 1818 1808 1792 1780 1816 1841 1849 1862 1879 1891 1904 1908 1919 1959 1983 2026 2056 2080 2106 2128 2148 2161 2157 2128 2084 2034 1984 1980 2024 1979 1952 2000 2066 2144 2208 2263 2309 2354 2388 2368 2295 2227 2233 2215 2260 2294 2362 2415 2405 2330 2265 2245 2244 2231 2147
1987 1963 1946 1933 1949 1969 1996 2042 2085 2106 2114 2117 2137 2167 2189 2207 2221 2241 2260 2277 2286 2283 2272 2248 2234 2217 2195 2181 2155 2125 2102 2082 2068 2054 2054 2058 2055 2010 1953 1912 1879 1866 1854 1842 1830 1819 1808 1792 1775 1805 1830 1840 1852 1868 1881 1894 1897 1906 1941 1963 2000 2018 2042 2083 2103 2118 2124 2111 2086 2049 2003 1958 1965 1953 1937 1991 2044 2075 2144 2215 2271 2319 2360 2373 2330 2242 2162 2172 2207 2255 2304 2353 2404 2436 2379 2319 2318 2308 2256 2197
1961 1948 1936 1926 1952 1974 2014 2072 2108 2124 2133 2145 2154 2173 2189 2204 2219 2238 2256 2272 2280 2279 2268 2247 2231 2217 2198 2179 2148 2119 2098 2072 2036 2013 2021 2032 2020 1978 1933 1901 1874 1861 1850 1842 1830 1821 1807 1791 1774 1794 1823 1831 1844 1857 1870 1884 1886 1897 1928 1946 1975 1991 2014 2051 2073 2082 2077 2060 2033 2001 1969 1928 1926 1942 2001 2047 2088 2124 2162 2218 2275 2322 2343 2348 2309 2217 2126 2140 2199 2236 2274 2319 2362 2416 2456 2408 2393 2347 2299 2280
1945 1933 1923 1933 1961 1988 2033 2090 2122 2132 2147 2163 2172 2182 2193 2203 2218 2234 2252 2265 2273 2271 2260 2244 2231 2220 2203 2176 2144 2123 2103 2081 2054 2011 1974 1984 1971 1936 1902 1887 1869 1859 1837 1824 1823 1818 1812 1793 1770 1781 1817 1821 1833 1846 1860 1874 1878 1887 1915 1933 1957 1973 1995 2024 2040 2040 2027 2006 1977 1946 1915 1898 1936 1982 2001 2047 2101 2152 2197 2241 2291 2317 2302 2282 2256 2202 2114 2085 2139 2180 2215 2257 2299 2355 2443 2490 2428 2365 2335 2318
1927 1918 1919 1940 1964 1994 2040 2096 2132 2143 2153 2165 2171 2178 2185 2196 2211 2227 2244 2256 2263 2261 2251 2239 2231 2221 2204 2173 2145 2130 2110 2086 2055 2013 1966 1939 1934 1912 1887 1872 1858 1846 1852 1840 1830 1825 1815 1798 1775 1771 1803 1812 1821 1834 1849 1864 1871 1878 1900 1915 1937 1954 1971 1991 1999 1995 1973 1945 1915 1889 1893 1929 1979 2021 2043 2061 2096 2155 2217 2263 2291 2281 2267 2235 2156 2109 2068 2068 2100 2130 2168 2213 2264 2327 2419 2470 2418 2341 2297 2281
1910 1909 1927 1947 1969 1998 2045 2099 2134 2146 2149 2154 2157 2163 2170 2181 2200 2223 2238 2244 2249 2249 2241 2232 2229 2223 2207 2172 2143 2134 2112 2082 2041 1996 1950 1917 1905 1893 1876 1861 1859 1862 1858 1848 1838 1830 1817 1798 1777 1765 1792 1803 1812 1825 1838 1852 1863 1872 1886 1897 1917 1932 1942 1952 1955 1943 1914 1890 1873 1898 1941 1974 2015 2057 2093 2113 2129 2175 2238 2270 2260 2237 2222 2184 2072 2025 2049 2098 2127 2153 2186 2232 2286 2347 2421 2460 2407 2309 2245 2212
1898 1913 1929 1948 1969 1997 2042 2092 2121 2131 2136 2139 2143 2149 2156 2168 2194 2226 2238 2230 2231 2232 2223 2222 2224 2216 2196 2163 2139 2124 2092 2052 2015 1974 1933 1909 1897 1880 1874 1876 1875 1875 1865 1851 1839 1830 1820 1800 1771 1762 1787 1796 1806 1817 1827 1841 1852 1864 1877 1888 1903 1914 1919 1923 1913 1876 1857 1868 1910 1953 1991 2027 2065 2104 2138 2167 2185 2223 2257 2250 2227 2197 2163 2123 2042 2014 2083 2124 2163 2199 2235 2272 2320 2370 2407 2431 2420 2329 2242 2182
1914 1923 1932 1942 1961 1990 2024 2067 2104 2114 2116 2121 2126 2133 2145 2163 2194 2230 2238 2217 2212 2210 2202 2205 2201 2172 2139 2117 2093 2058 2023 1994 1972 1947 1923 1905 1893 1893 1893 1893 1889 1882 1871 1855 1840 1830 1820 1802 1773 1760 1779 1794 1802 1810 1820 1832 1842 1855 1867 1879 1892 1902 1906 1893 1860 1843 1876 1928 1973 2011 2051 2087 2122 2159 2192 2224 2237 2230 2227 2215 2195 2150 2112 2076 2014 2024 2093 2131 2164 2205 2236 2261 2318 2356 2340 2352 2398 2367 2276 2225
1930 1941 1951 1953 1958 1974 1995 2022 2043 2063 2080 2094 2112 2127 2142 2164 2198 2230 2231 2203 2193 2193 2186 2180 2155 2118 2089 2066 2039 2010 1985 1960 1943 1931 1918 1915 1917 1917 1913 1907 1899 1888 1874 1858 1845 1832 1820 1803 1774 1755 1771 1791 1796 1804 1814 1825 1834 1846 1859 1869 1884 1893 1884 1846 1827 1874 1933 1982 2025 2066 2101 2132 2168 2197 2224 2257 2254 2213 2189 2177 2162 2116 2065 2031 1994 2014 2057 2085 2127 2173 2199 2243 2307 2301 2259 2289 2352 2376 2324 2273
1951 1966 1976 1980 1982 1986 1999 2021 2046 2066 2080 2095 2113 2132 2147 2173 2208 2233 2224 2191 2178 2177 2169 2155 2119 2079 2055 2036 2013 1994 1978 1962 1951 1944 1944 1945 1946 1942 1932 1917 1904 1891 1876 1860 1847 1836 1822 1804 1776 1752 1762 1782 1791 1798 1808 1818 1826 1835 1849 1861 1877 1874 1842 1830 1861 1916 1964 2002 2043 2083 2117 2147 2179 2207 2232 2251 2231 2187 2159 2137 2123 2092 2028 1980 1972 2000 2033 2069 2102 2137 2188 2257 2260 2200 2209 2258 2300 2333 2327 2299
1967 1982 1999 2011 2017 2027 2048 2077 2103 2106 2108 2120 2128 2140 2156 2185 2218 2243 2232 2192 2168 2157 2151 2128 2087 2056 2042 2033 2024 2014 1997 1983 1976 1975 1978 1979 1970 1959 1942 1921 1905 1891 1876 1860 1846 1833 1817 1802 1780 1755 1750 1770 1787 1792 1800 1811 1819 1827 1841 1855 1864 1837 1810 1844 1886 1923 1962 2001 2039 2078 2112 2142 2174 2202 2223 2225 2196 2158 2129 2102 2080 2062 2013 1949 1960 2024 2075 2129 2151 2169 2230 2249 2177 2130 2170 2229 2255 2249 2242 2252
1977 1993 2011 2026 2043 2073 2107 2133 2143 2134 2137 2147 2147 2153 2167 2193 2225 2250 2244 2204 2167 2146 2131 2103 2072 2064 2065 2068 2062 2044 2025 2012 2009 2012 2011 2001 1984 1965 1945 1923 1908 1896 1880 1861 1845 1831 1819 1803 1780 1753 1741 1762 1785 1787 1793 1802 1810 1820 1832 1835 1824 1816 1836 1870 1896 1927 1962 1996 2032 2067 2101 2133 2164 2192 2210 2204 2167 2120 2084 2065 2054 2029 1961 1944 2006 2070 2128 2188 2224 2224 2254 2221 2117 2098 2138 2182 2190 2181 2196 2212
1979 1996 2013 2033 2057 2092 2128 2149 2156 2160 2165 2167 2166 2169 2182 2209 2239 2262 2260 2225 2186 2159 2132 2109 2100 2101 2100 2098 2091 2076 2061 2050 2045 2040 2033 2015 1990 1966 1949 1931 1916 1906 1887 1866 1848 1836 1823 1808 1786 1755 1738 1755 1777 1782 1786 1794 1803 1809 1810 1802 1802 1830 1861 1877 1899 1929 1955 1984 2019 2055 2089 2122 2151 2178 2194 2182 2145 2095 2041 2006 2026 1983 1916 1962 2034 2092 2159 2209 2217 2216 2232 2183 2079 2058 2097 2118 2127 2137 2153 2172
1969 1986 2008 2030 2061 2100 2131 2148 2163 2182 2188 2185 2185 2188 2206 2235 2267 2290 2282 2248 2211 2177 2155 2141 2134 2133 2131 2130 2126 2114 2097 2082 2071 2061 2038 2011 1996 1983 1963 1940 1925 1914 1894 1871 1854 1839 1823 1807 1791 1763 1739 1744 1765 1777 1780 1788 1796 1793 1787 1801 1831 1851 1861 1878 1902 1927 1948 1973 2003 2040 2077 2109 2138 2165 2178 2156 2116 2075 2020 1970 1973 1935 1910 1972 2031 2096 2171 2183 2144 2146 2150 2109 2039 2024 2063 2080 2079 2080 2089 2128
1949 1973 1997 2017 2053 2102 2140 2158 2173 2194 2208 2206 2201 2206 2227 2259 2299 2316 2296 2261 2225 2199 2177 2159 2152 2152 2153 2148 2143 2137 2126 2106 2083 2062 2038 2025 2017 1998 1974 1947 1929 1917 1897 1874 1856 1840 1824 1808 1792 1770 1741 1738 1761 1773 1777 1788 1784 1785 1799 1817 1837 1849 1860 1875 1897 1919 1940 1964 1993 2029 2064 2095 2126 2151 2157 2115 2068 2042 2005 1949 1901 1898 1937 1992 2053 2136 2172 2117 2070 2067 2053 2026 1990 1981 2004 2021 2032 2042 2061 2097
1945 1958 1976 2001 2036 2087 2142 2172 2183 2201 2223 2223 2215 2217 2235 2266 2299 2302 2281 2258 2233 2216 2200 2184 2174 2168 2165 2158 2152 2148 2141 2121 2091 2065 2058 2051 2031 2006 1980 1950 1930 1916 1897 1875 1856 1842 1828 1810 1795 1767 1736 1734 1755 1768 1779 1780 1770 1785 1804 1814 1827 1841 1858 1873 1892 1914 1933 1956 1985 2018 2052 2085 2117 2138 2132 2087 2015 1985 1976 1904 1881 1932 1986 2040 2108 2153 2135 2059 2009 2001 1981 1955 1946 1952 1976 2012 2052 2089 2115 2125
1944 1946 1957 1985 2013 2055 2113 2161 2189 2211 2221 2218 2216 2217 2227 2249 2269 2268 2251 2232 2218 2211 2202 2198 2193 2181 2173 2164 2156 2150 2141 2127 2105 2085 2078 2065 2039 2011 1983 1951 1930 1915 1896 1877 1858 1844 1830 1812 1796 1768 1735 1729 1748 1767 1770 1760 1766 1783 1795 1805 1820 1837 1855 1871 1888 1909 1928 1949 1976 2007 2040 2073 2106 2126 2100 2041 1986 1941 1906 1870 1898 1968 2030 2080 2095 2090 2059 1999 1956 1928 1914 1913 1924 1961 2009 2055 2089 2126 2160 2188
1931 1940 1942 1957 1990 2028 2075 2126 2169 2200 2209 2207 2206 2208 2215 2226 2237 2242 2231 2212 2196 2189 2183 2189 2198 2189 2176 2166 2157 2151 2144 2137 2126 2109 2089 2072 2046 2014 1985 1954 1929 1913 1897 1880 1861 1847 1831 1814 1796 1770 1737 1723 1745 1766 1756 1759 1770 1778 1788 1800 1817 1835 1849 1867 1884 1902 1922 1943 1970 1998 2027 2060 2096 2115 2082 2022 1964 1905 1868 1890 1947 2004 2055 2057 2016 1994 1954 1906 1890 1898 1908 1936 1937 1946 1995 2048 2089 2127 2163 2200
1914 1930 1938 1942 1964 1995 2034 2082 2120 2159 2190 2197 2193 2196 2203 2207 2211 2216 2210 2196 2181 2169 2166 2174 2188 2193 2182 2170 2161 2154 2147 2141 2134 2123 2099 2076 2050 2018 1988 1957 1930 1912 1897 1880 1862 1849 1830 1812 1795 1769 1736 1720 1743 1749 1755 1763 1764 1771 1782 1796 1814 1832 1846 1863 1880 1896 1914 1936 1965 1992 2019 2049 2091 2090 2037 1995 1947 1866 1859 1921 1980 2021 2027 1993 1935 1886 1867 1878 1897 1951 1963 1989 1999 1958 1971 2016 2062 2111 2151 2185
1903 1920 1933 1938 1943 1961 1993 2033 2064 2099 2144 2174 2181 2184 2189 2192 2196 2196 2188 2175 2163 2147 2150 2166 2184 2199 2192 2177 2167 2157 2149 2142 2133 2122 2100 2078 2053 2020 1990 1959 1932 1912 1894 1876 1862 1847 1827 1810 1794 1771 1735 1720 1730 1741 1757 1760 1758 1764 1774 1789 1808 1826 1840 1856 1875 1890 1906 1928 1956 1983 2011 2040 2080 2075 2014 1945 1907 1846 1870 1937 1984 1999 1976 1909 1864 1875 1912 1951 1989 2034 2034 2048 2052 1992 1981 2027 2078 2115 2150 2184
1889 1907 1924 1938 1938 1947 1975 2008 2022 2057 2091 2128 2161 2172 2176 2180 2183 2183 2174 2158 2144 2126 2136 2163 2185 2193 2196 2184 2170 2157 2150 2140 2127 2114 2097 2075 2046 2016 1987 1959 1933 1908 1887 1872 1859 1842 1825 1810 1793 1770 1736 1718 1722 1748 1754 1751 1753 1757 1765 1780 1799 1817 1835 1850 1868 1883 1899 1920 1947 1973 2001 2029 2061 2080 2015 1934 1861 1841 1886 1941 1974 1956 1894 1860 1864 1914 1968 2012 2062 2099 2101 2097 2071 2014 2000 2036 2080 2112 2151 2183
1876 1894 1907 1925 1935 1940 1967 2003 2008 2020 2045 2082 2130 2153 2158 2163 2168 2168 2163 2150 2132 2113 2132 2157 2170 2174 2180 2177 2164 2148 2141 2135 2114 2099 2082 2057 2028 2004 1972 1952 1930 1902 1879 1866 1855 1836 1822 1807 1792 1774 1741 1716 1720 1738 1745 1746 1748 1754 1759 1772 1788 1807 1828 1844 1858 1875 1893 1912 1938 1963 1988 2015 2043 2057 2005 1940 1858 1829 1882 1939 1927 1869 1831 1871 1919 1958 1979 2020 2084 2138 2152 2124 2078 2038 2020 2034 2068 2109 2159 2198
1859 1873 1889 1905 1925 1936 1956 1987 2003 1994 2019 2041 2085 2126 2136 2142 2141 2142 2145 2142 2130 2102 2123 2144 2147 2152 2162 2162 2147 2136 2128 2121 2099 2081 2056 2029 1998 1967 1944 1933 1917 1893 1876 1864 1846 1829 1815 1804 1790 1778 1754 1724 1711 1716 1730 1743 1746 1751 1756 1765 1780 1798 1819 1836 1851 1869 1885 1904 1930 1954 1975 1996 2021 2027 1973 1914 1858 1825 1887 1889 1832 1822 1838 1898 1967 2013 2016 2024 2089 2162 2194 2160 2107 2088 2064 2059 2100 2139 2176 2212
1845 1856 1872 1891 1902 1925 1944 1961 1980 1985 2005 2012 2044 2093 2112 2112 2106 2115 2124 2131 2128 2099 2106 2130 2129 2131 2142 2146 2132 2122 2114 2107 2090 2060 2033 2006 1977 1959 1946 1930 1914 1893 1875 1861 1848 1833 1819 1805 1790 1776 1764 1742 1720 1706 1709 1735 1746 1749 1753 1761 1773 1790 1809 1827 1839 1856 1872 1893 1923 1943 1960 1977 1995 1990 1941 1888 1820 1835 1836 1804 1814 1861 1893 1925 1987 2053 2077 2066 2097 2163 2235 2209 2171 2152 2119 2102 2122 2175 2221 2266
1829 1847 1858 1876 1884 1899 1916 1939 1956 1973 1986 1994 2008 2051 2096 2082 2068 2082 2099 2109 2102 2082 2088 2117 2105 2101 2116 2123 2117 2110 2100 2090 2076 2044 2024 2000 1980 1970 1965 1944 1921 1897 1874 1859 1851 1836 1822 1805 1789 1776 1769 1757 1737 1714 1701 1719 1741 1747 1751 1758 1767 1780 1798 1815 1830 1844 1860 1882 1910 1925 1940 1953 1960 1948 1901 1862 1830 1795 1804 1836 1869 1915 1962 1985 2006 2069 2135 2133 2133 2176 2255 2268 2243 2219 2174 2150 2163 2216 2272 2318
1802 1818 1843 1863 1872 1881 1891 1908 1931 1957 1969 1980 1989 2020 2080 2079 2022 2025 2043 2044 2046 2056 2086 2099 2077 2070 2085 2097 2098 2094 2088 2081 2071 2057 2034 2016 2003 1994 1977 1949 1922 1897 1874 1860 1852 1839 1825 1806 1789 1778 1769 1761 1750 1726 1706 1703 1725 1748 1753 1757 1759 1768 1787 1805 1821 1833 1849 1871 1891 1902 1913 1917 1914 1895 1854 1813 1780 1798 1849 1892 1927 1969 2017 2056 2066 2099 2163 2196 2209 2235 2284 2332 2316 2279 2234 2218 2220 2244 2316 2377
1757 1804 1833 1858 1866 1874 1879 1889 1906 1929 1949 1964 1977 2001 2040 2042 1985 1966 1974 1993 2031 2087 2100 2087 2071 2051 2057 2067 2070 2071 2075 2076 2072 2066 2057 2038 2024 2010 1983 1948 1919 1894 1874 1865 1852 1838 1823 1804 1788 1776 1764 1759 1755 1741 1721 1704 1706 1743 1756 1757 1755 1762 1777 1798 1812 1822 1836 1853 1866 1873 1875 1866 1855 1837 1794 1774 1795 1834 1877 1910 1954 2001 2048 2094 2126 2161 2197 2228 2252 2279 2315 2362 2385 2353 2321 2306 2293 2313 2378 2430
1746 1779 1813 1839 1858 1864 1866 1867 1886 1897 1919 1936 1954 1973 1985 1963 1942 1932 1957 2016 2066 2096 2098 2079 2063 2037 2029 2039 2044 2053 2063 2070 2070 2067 2065 2044 2025 2006 1977 1942 1912 1887 1870 1859 1844 1832 1817 1800 1785 1770 1759 1758 1755 1750 1739 1722 1697 1724 1753 1754 1755 1758 1768 1789 1803 1812 1823 1834 1841 1842 1833 1815 1800 1771 1768 1789 1830 1873 1908 1938 1977 2023 2071 2120 2147 2170 2182 2193 2219 2259 2303 2349 2402 2426 2412 2392 2384 2388 2430 2487
1746 1746 1786 1814 1839 1859 1859 1860 1866 1872 1889 1907 1926 1943 1936 1912 1901 1923 1974 2036 2069 2083 2089 2072 2053 2026 2007 2013 2021 2037 2048 2056 2057 2054 2045 2031 2013 1990 1961 1928 1894 1872 1857 1844 1831 1823 1814 1799 1782 1765 1757 1758 1754 1752 1747 1732 1697 1707 1739 1748 1752 1754 1760 1780 1792 1800 1808 1813 1812 1805 1788 1755 1757 1776 1801 1830 1869 1913 1951 1986 2023 2058 2088 2113 2113 2095 2099 2118 2153 2206 2267 2328 2382 2432 2453 2468 2479 2472 2485 2514
1764 1742 1745 1775 1810 1831 1846 1858 1858 1857 1873 1895 1908 1908 1895 1888 1886 1916 1971 2028 2064 2076 2083 2067 2049 2027 2006 1988 2003 2017 2026 2037 2043 2037 2035 2018 1989 1962 1938 1898 1876 1857 1848 1832 1821 1817 1809 1800 1782 1763 1757 1756 1754 1751 1746 1731 1700 1695 1730 1741 1747 1753 1759 1772 1786 1788 1791 1786 1772 1750 1745 1758 1775 1786 1836 1870 1904 1944 1985 2029 2044 2052 2063 2059 2026 2025 2067 2106 2140 2186 2243 2311 2375 2403 2421 2449 2486 2461 2443 2425
1792 1762 1738 1743 1771 1800 1834 1848 1846 1846 1864 1876 1885 1874 1866 1870 1881 1909 1957 2001 2036 2046 2068 2067 2049 2029 2005 1968 1971 1985 2001 2020 2004 2015 2019 1997 1946 1919 1902 1874 1860 1849 1836 1823 1814 1809 1801 1793 1779 1765 1758 1756 1753 1749 1745 1721 1702 1693 1739 1737 1742 1750 1758 1764 1776 1778 1774 1752 1733 1739 1764 1785 1811 1804 1816 1869 1907 1946 1977 1997 1997 2003 2006 1975 1995 2039 2100 2151 2187 2224 2266 2326 2362 2350 2350 2391 2413 2388 2356 2321
1808 1793 1754 1736 1743 1781 1806 1827 1831 1829 1843 1851 1858 1847 1846 1854 1869 1889 1922 1959 1987 1999 2016 2053 2055 2034 2008 1968 1929 1936 1962 1989 1999 1994 1962 1934 1903 1877 1862 1852 1840 1831 1821 1812 1806 1802 1795 1786 1775 1764 1757 1753 1751 1748 1744 1716 1692 1699 1732 1734 1736 1744 1754 1760 1771 1766 1739 1729 1746 1772 1800 1831 1865 1844 1810 1829 1886 1904 1915 1916 1921 1920 1937 1973 2030 2084 2136 2185 2229 2269 2306 2328 2312 2289 2291 2336 2365 2332 2253 2241
1814 1805 1775 1729 1732 1746 1773 1795 1818 1811 1827 1830 1831 1828 1830 1839 1846 1859 1880 1907 1921 1930 1952 1993 2033 2024 2008 1980 1925 1877 1916 1955 1955 1936 1918 1883 1858 1860 1837 1828 1817 1812 1806 1800 1796 1793 1787 1779 1770 1757 1752 1748 1749 1750 1744 1716 1684 1701 1727 1733 1731 1736 1744 1755 1767 1738 1723 1746 1781 1811 1832 1853 1875 1875 1862 1845 1841 1858 1871 1887 1908 1920 1967 1998 2058 2111 2160 2210 2258 2287 2292 2269 2242 2232 2251 2294 2330 2272 2183 2184
1821 1808 1795 1760 1732 1726 1734 1765 1785 1794 1809 1810 1812 1815 1820 1825 1829 1839 1854 1868 1872 1873 1895 1929 1957 1962 1965 1967 1933 1880 1839 1877 1886 1869 1850 1834 1823 1824 1815 1803 1795 1792 1790 1787 1784 1781 1776 1770 1764 1751 1748 1743 1744 1749 1747 1705 1682 1695 1716 1723 1731 1730 1737 1751 1753 1719 1734 1766 1798 1820 1838 1858 1881 1900 1914 1901 1889 1899 1914 1934 1960 1978 1989 2033 2059 2124 2180 2231 2276 2269 2232 2196 2170 2184 2230 2280 2307 2252 2150 2099
1826 1812 1800 1785 1753 1742 1726 1728 1756 1766 1793 1792 1805 1806 1812 1814 1816 1824 1830 1839 1856 1857 1857 1876 1889 1888 1882 1882 1874 1847 1806 1818 1818 1806 1799 1796 1794 1797 1792 1781 1778 1776 1774 1773 1772 1769 1765 1764 1758 1745 1740 1733 1733 1739 1743 1708 1676 1686 1700 1704 1727 1728 1732 1740 1721 1721 1748 1777 1799 1812 1831 1856 1882 1908 1931 1948 1957 1971 1982 2000 2023 2033 2013 2074 2092 2136 2195 2244 2254 2220 2174 2127 2125 2167 2220 2263 2253 2187 2130 2072
1832 1821 1806 1798 1785 1763 1738 1723 1721 1728 1770 1787 1783 1802 1805 1805 1806 1813 1809 1810 1825 1842 1842 1828 1820 1817 1816 1810 1803 1797 1778 1780 1780 1776 1771 1771 1770 1770 1770 1765 1760 1763 1759 1758 1758 1756 1756 1756 1753 1739 1731 1724 1720 1725 1733 1727 1680 1677 1693 1698 1711 1728 1723 1713 1705 1733 1755 1775 1795 1805 1827 1853 1878 1905 1930 1955 1980 2008 2030 2054 2078 2092 2079 2103 2154 2179 2221 2225 2198 2166 2115 2074 2119 2179 2228 2229 2160 2116 2070 2053
1834 1825 1812 1800 1796 1786 1775 1752 1724 1717 1736 1767 1783 1795 1795 1795 1795 1799 1793 1787 1792 1808 1811 1789 1776 1773 1770 1766 1763 1763 1762 1761 1759 1757 1754 1754 1751 1750 1751 1750 1749 1748 1746 1744 1743 1744 1744 1743 1741 1734 1725 1715 1711 1713 1717 1716 1702 1670 1686 1693 1699 1724 1707 1690 1706 1736 1752 1767 1782 1801 1823 1845 1868 1895 1923 1940 1968 2000 2033 2069 2102 2131 2150 2164 2186 2218 2221 2176 2133 2092 2054 2049 2118 2186 2235 2188 2082 2049 2043 2014
1833 1825 1813 1799 1795 1788 1779 1748 1716 1708 1740 1771 1789 1784 1780 1780 1781 1779 1771 1766 1766 1770 1765 1756 1750 1748 1746 1744 1741 1744 1749 1748 1746 1741 1739 1740 1740 1742 1743 1743 1743 1740 1738 1737 1736 1735 1734 1734 1733 1730 1719 1708 1704 1702 1700 1699 1698 1669 1680 1690 1700 1707 1697 1699 1716 1733 1746 1758 1770 1788 1811 1834 1855 1880 1906 1925 1953 1987 2024 2063 2097 2128 2162 2192 2199 2193 2171 2133 2076 2021 2011 2058 2126 2183 2218 2168 2059 1988 1989 1974
1831 1821 1809 1797 1793 1786 1775 1750 1707 1697 1736 1772 1775 1774 1770 1767 1768 1764 1755 1746 1746 1745 1740 1736 1734 1732 1730 1728 1729 1732 1734 1733 1730 1731 1731 1731 1732 1733 1732 1733 1733 1732 1734 1736 1733 1732 1731 1731 1731 1725 1715 1706 1700 1693 1686 1687 1683 1669 1675 1689 1701 1689 1689 1706 1715 1724 1732 1744 1761 1775 1798 1821 1842 1862 1885 1914 1942 1971 2005 2038 2070 2102 2138 2175 2191 2151 2101 2062 2031 1987 2011 2075 2126 2168 2192 2117 2041 1973 1925 1924
1829 1815 1804 1798 1792 1785 1775 1766 1737 1692 1705 1744 1759 1760 1761 1758 1750 1743 1736 1728 1727 1726 1725 1723 1721 1720 1719 1720 1721 1721 1721 1722 1719 1717 1718 1722 1722 1721 1719 1720 1721 1722 1723 1725 1726 1726 1729 1727 1725 1721 1717 1715 1702 1692 1683 1685 1685 1664 1675 1688 1687 1677 1697 1705 1708 1712 1717 1724 1738 1760 1786 1808 1828 1851 1879 1906 1925 1948 1978 2000 2036 2077 2118 2160 2187 2158 2094 2027 1992 1974 2007 2057 2108 2161 2174 2076 1994 1934 1897 1880
1818 1809 1802 1791 1787 1781 1773 1767 1752 1709 1691 1715 1748 1742 1740 1737 1730 1722 1715 1713 1712 1710 1709 1708 1707 1706 1707 1708 1708 1708 1708 1710 1710 1710 1713 1713 1711 1710 1709 1710 1712 1712 1712 1714 1716 1716 1715 1714 1714 1715 1714 1713 1702 1690 1680 1685 1682 1661 1671 1677 1673 1692 1699 1700 1700 1703 1707 1711 1721 1742 1766 1792 1816 1838 1864 1885 1896 1913 1938 1974 2018 2064 2106 2148 2182 2162 2115 2062 1992 1960 1979 2022 2073 2135 2154 2066 1970 1902 1864 1892
1816 1807 1798 1788 1779 1771 1765 1759 1751 1733 1699 1697 1741 1726 1720 1717 1714 1709 1704 1705 1702 1699 1694 1693 1695 1694 1693 1691 1692 1694 1697 1701 1703 1705 1706 1706 1706 1707 1707 1704 1706 1707 1707 1709 1711 1709 1706 1706 1703 1702 1699 1694 1691 1682 1678 1681 1670 1659 1663 1673 1688 1694 1695 1695 1695 1695 1700 1706 1712 1729 1753 1780 1806 1824 1839 1852 1873 1905 1935 1975 2017 2056 2091 2131 2167 2144 2088 2050 1995 1952 1967 1992 2041 2094 2128 2049 1944 1875 1837 1892
1795 1797 1792 1778 1771 1762 1756 1749 1742 1741 1717 1687 1726 1720 1709 1707 1704 1700 1697 1697 1693 1688 1685 1685 1685 1684 1683 1684 1684 1685 1685 1687 1690 1695 1695 1699 1701 1702 1702 1701 1702 1704 1703 1704 1704 1704 1705 1704 1700 1697 1694 1688 1684 1678 1676 1669 1656 1658 1670 1684 1689 1688 1690 1691 1690 1687 1687 1695 1706 1720 1738 1761 1790 1808 1817 1831 1864 1900 1928 1959 1996 2032 2068 2110 2148 2131 2070 2017 1973 1950 1953 1979 2023 2071 2097 2031 1910 1848 1829 1887
1803 1789 1780 1774 1770 1761 1750 1741 1735 1729 1723 1696 1696 1722 1705 1701 1697 1692 1690 1686 1683 1679 1678 1678 1677 1676 1677 1677 1677 1678 1677 1678 1678 1681 1686 1689 1690 1690 1693 1694 1696 1696 1696 1699 1701 1700 1699 1697 1699 1700 1699 1696 1688 1684 1671 1655 1654 1661 1676 1682 1681 1683 1685 1686 1685 1683 1684 1686 1698 1712 1724 1743 1765 1784 1800 1819 1845 1877 1908 1937 1967 2002 2043 2087 2118 2103 2055 2001 1963 1950 1937 1963 2003 2047 2040 1983 1914 1839 1814 1863
1786 1779 1775 1775 1768 1760 1750 1739 1733 1723 1717 1705 1678 1690 1703 1690 1682 1690 1683 1678 1674 1672 1671 1670 1668 1667 1667 1669 1670 1671 1669 1670 1672 1675 1679 1681 1684 1686 1686 1688 1692 1693 1694 1695 1697 1698 1697 1697 1695 1694 1696 1694 1690 1685 1668 1648 1655 1665 1675 1678 1676 1678 1681 1681 1681 1680 1678 1678 1689 1702 1710 1726 1745 1766 1790 1810 1820 1845 1878 1905 1934 1980 2016 2042 2061 2060 2031 1977 1943 1931 1927 1943 1989 2013 1975 1922 1883 1822 1789 1817
1779 1772 1766 1762 1759 1756 1747 1737 1730 1724 1714 1707 1693 1679 1680 1669 1664 1681 1680 1672 1667 1666 1665 1662 1659 1659 1658 1659 1661 1663 1661 1661 1663 1664 1669 1676 1679 1683 1682 1682 1685 1688 1688 1688 1690 1690 1691 1691 1687 1688 1688 1685 1684 1680 1662 1647 1659 1670 1673 1674 1674 1674 1676 1677 1676 1676 1673 1670 1677 1689 1699 1713 1731 1752 1775 1793 1805 1818 1840 1870 1914 1958 2001 2019 2006 2014 2002 1953 1914 1894 1901 1930 1965 1967 1925 1871 1815 1783 1793 1836
1773 1766 1759 1751 1748 1748 1743 1734 1725 1718 1713 1705 1701 1693 1672 1662 1658 1653 1669 1674 1667 1662 1659 1658 1657 1655 1653 1651 1650 1653 1655 1656 1658 1660 1662 1665 1668 1669 1672 1675 1677 1679 1679 1680 1682 1683 1685 1682 1682 1684 1682 1679 1678 1675 1658 1646 1659 1671 1671 1671 1670 1670 1671 1672 1671 1670 1670 1670 1671 1677 1687 1699 1714 1734 1753 1766 1778 1798 1822 1853 1895 1936 1972 1994 1981 1963 1954 1928 1897 1873 1876 1910 1937 1925 1891 1838 1768 1761 1808 1840
1767 1763 1757 1747 1742 1739 1737 1730 1721 1715 1711 1703 1693 1689 1682 1669 1661 1642 1643 1664 1665 1661 1655 1655 1655 1652 1650 1649 1648 1649 1647 1647 1653 1657 1657 1660 1665 1667 1669 1670 1669 1671 1673 1676 1676 1678 1681 1679 1679 1679 1678 1677 1675 1667 1651 1644 1656 1669 1668 1667 1667 1666 1666 1666 1666 1666 1665 1666 1669 1671 1674 1688 1702 1713 1726 1741 1763 1786 1807 1833 1868 1908 1948 1963 1945 1923 1911 1908 1893 1868 1874 1906 1915 1883 1838 1784 1756 1775 1798 1814
1762 1757 1753 1746 1739 1733 1728 1726 1718 1711 1706 1698 1691 1687 1681 1670 1663 1656 1637 1634 1654 1662 1653 1652 1651 1649 1644 1641 1642 1641 1641 1644 1648 1651 1650 1653 1658 1661 1666 1667 1666 1667 1670 1670 1669 1672 1674 1674 1674 1673 1673 1671 1669 1660 1646 1644 1656 1664 1665 1664 1664 1663 1662 1661 1662 1662 1661 1662 1661 1664 1668 1672 1686 1701 1713 1727 1747 1768 1788 1811 1849 1887 1926 1966 1995 1972 1917 1899 1891 1869 1869 1898 1893 1839 1771 1744 1771 1815 1844 1871
1759 1749 1744 1743 1737 1729 1723 1722 1716 1708 1702 1696 1692 1686 1676 1667 1659 1658 1651 1631 1637 1655 1653 1649 1645 1642 1639 1638 1637 1635 1636 1637 1638 1641 1642 1644 1647 1652 1657 1661 1663 1665 1664 1665 1667 1667 1667 1667 1668 1668 1669 1667 1666 1654 1639 1647 1654 1659 1663 1661 1660 1660 1659 1658 1658 1658 1657 1657 1655 1657 1660 1664 1677 1690 1700 1712 1727 1747 1771 1798 1826 1862 1905 1957 2012 1986 1913 1876 1874 1861 1851 1873 1862 1783 1737 1771 1825 1857 1887 1930
1749 1742 1741 1740 1734 1729 1724 1719 1715 1710 1703 1698 1695 1688 1676 1665 1657 1652 1653 1646 1629 1637 1650 1646 1643 1640 1638 1636 1634 1633 1631 1630 1630 1632 1635 1635 1636 1641 1649 1654 1657 1661 1662 1660 1661 1664 1664 1664 1665 1667 1667 1664 1666 1651 1637 1647 1654 1658 1661 1659 1658 1657 1656 1656 1655 1654 1654 1654 1652 1650 1651 1655 1665 1678 1688 1696 1708 1726 1752 1780 1803 1831 1878 1926 1969 1946 1887 1855 1847 1847 1828 1839 1803 1737 1773 1833 1854 1885 1921 1962
1742 1739 1737 1737 1735 1730 1723 1716 1713 1712 1707 1699 1695 1690 1678 1667 1658 1649 1646 1649 1638 1627 1639 1646 1643 1641 1638 1636 1633 1631 1630 1626 1624 1627 1629 1629 1627 1630 1640 1647 1651 1652 1655 1658 1658 1661 1662 1662 1661 1661 1663 1662 1663 1648 1635 1644 1656 1660 1658 1659 1658 1656 1655 1654 1652 1651 1650 1650 1648 1645 1648 1655 1659 1666 1677 1683 1691 1708 1735 1761 1782 1803 1842 1890 1916 1898 1863 1839 1831 1839 1802 1792 1741 1739 1820 1873 1911 1942 1972 2007
1740 1733 1732 1729 1728 1728 1723 1716 1708 1710 1710 1702 1693 1688 1681 1672 1660 1650 1643 1642 1637 1625 1625 1642 1645 1640 1637 1635 1634 1634 1633 1629 1625 1623 1622 1621 1620 1620 1625 1634 1640 1643 1643 1650 1657 1657 1656 1656 1655 1655 1659 1660 1655 1640 1633 1650 1659 1658 1657 1658 1658 1656 1655 1655 1653 1650 1648 1646 1646 1644 1652 1652 1652 1661 1671 1673 1677 1693 1716 1742 1765 1782 1805 1849 1866 1852 1832 1816 1820 1829 1779 1733 1730 1782 1849 1900 1951 1995 2029 2064
1743 1732 1726 1722 1720 1721 1722 1717 1709 1708 1709 1703 1692 1685 1681 1672 1662 1652 1642 1636 1637 1632 1619 1626 1642 1641 1638 1637 1635 1632 1629 1625 1624 1623 1622 1622 1620 1619 1617 1618 1626 1629 1635 1643 1649 1651 1652 1654 1659 1642 1632 1638 1634 1629 1643 1655 1657 1658 1657 1656 1655 1652 1651 1655 1657 1654 1649 1646 1644 1642 1643 1647 1649 1659 1666 1667 1668 1676 1695 1723 1747 1763 1780 1803 1816 1814 1801 1795 1800 1792 1728 1699 1756 1827 1874 1914 1962 2009 2049 2085
1741 1733 1723 1715 1713 1714 1716 1714 1710 1703 1702 1702 1695 1685 1678 1671 1662 1653 1644 1635 1633 1635 1627 1613 1627 1638 1635 1634 1633 1632 1631 1626 1621 1621 1622 1623 1623 1622 1620 1617 1617 1619 1625 1629 1636 1642 1650 1658 1640 1619 1615 1619 1631 1642 1656 1659 1657 1659 1660 1659 1656 1651 1649 1652 1652 1652 1650 1648 1643 1642 1640 1641 1645 1654 1664 1668 1665 1664 1675 1698 1725 1740 1766 1777 1776 1781 1780 1778 1759 1714 1706 1760 1823 1847 1871 1901 1933 1961 1985 1976
1736 1729 1723 1714 1709 1708 1708 1710 1708 1700 1695 1695 1690 1683 1679 1672 1660 1652 1646 1638 1631 1630 1621 1617 1612 1622 1627 1624 1626 1626 1627 1628 1624 1622 1624 1625 1625 1622 1618 1616 1616 1616 1621 1621 1625 1633 1643 1636 1615 1629 1641 1638 1647 1656 1657 1660 1659 1662 1665 1664 1660 1653 1651 1651 1654 1655 1654 1651 1646 1642 1641 1639 1637 1643 1654 1663 1663 1660 1664 1680 1703 1720 1745 1764 1762 1758 1762 1756 1708 1694 1759 1814 1828 1809 1813 1841 1866 1880 1904 1905
1730 1725 1718 1710 1704 1701 1700 1702 1704 1702 1693 1688 1685 1681 1678 1670 1660 1650 1645 1637 1627 1625 1619 1615 1614 1610 1616 1621 1622 1623 1625 1626 1625 1621 1621 1622 1627 1623 1615 1614 1615 1615 1617 1619 1621 1627 1627 1609 1623 1647 1653 1653 1651 1648 1651 1657 1658 1660 1664 1665 1662 1654 1650 1654 1657 1656 1656 1654 1649 1644 1640 1636 1635 1637 1647 1654 1657 1658 1660 1670 1686 1706 1727 1740 1741 1740 1752 1710 1682 1721 1750 1766 1764 1781 1801 1813 1834 1861 1881 1923
1722 1717 1713 1707 1701 1695 1693 1692 1694 1698 1694 1685 1680 1679 1674 1665 1658 1649 1642 1634 1624 1621 1620 1613 1610 1610 1606 1614 1620 1621 1624 1626 1626 1621 1619 1617 1617 1614 1617 1620 1620 1617 1620 1625 1620 1619 1613 1618 1633 1644 1646 1647 1648 1647 1647 1651 1657 1657 1657 1662 1662 1655 1652 1655 1660 1662 1662 1659 1654 1647 1642 1638 1636 1634 1637 1646 1651 1653 1656 1662 1673 1695 1710 1714 1717 1722 1724 1676 1693 1724 1729 1757 1806 1856 1897 1916 1923 1948 1979 2004
1715 1710 1709 1707 1701 1691 1686 1684 1683 1685 1686 1681 1675 1673 1668 1662 1657 1650 1640 1628 1620 1617 1620 1611 1608 1608 1606 1603 1611 1617 1620 1621 1622 1620 1618 1615 1612 1610 1617 1621 1619 1620 1622 1625 1622 1615 1607 1625 1634 1640 1645 1646 1647 1647 1647 1649 1653 1655 1655 1662 1659 1656 1656 1658 1661 1666 1667 1665 1663 1656 1649 1641 1637 1634 1632 1640 1648 1650 1649 1654 1667 1680 1691 1696 1701 1709 1689 1676 1710 1739 1762 1799 1838 1883 1934 1977 2004 2021 2045 2053
1708 1703 1705 1706 1703 1693 1680 1677 1676 1675 1674 1677 1673 1667 1664 1661 1658 1647 1636 1626 1621 1616 1613 1609 1606 1607 1602 1602 1597 1610 1616 1616 1618 1618 1618 1616 1614 1607 1610 1616 1617 1622 1623 1623 1623 1613 1614 1621 1627 1637 1644 1647 1651 1652 1648 1650 1652 1654 1659 1661 1655 1657 1660 1665 1668 1668 1668 1670 1669 1665 1657 1649 1643 1636 1632 1634 1644 1647 1643 1646 1658 1675 1681 1683 1687 1699 1668 1688 1724 1744 1764 1794 1834 1870 1906 1954 2016 2071 2095 2120
1702 1696 1695 1699 1701 1696 1681 1672 1672 1671 1669 1676 1674 1662 1666 1663 1652 1638 1630 1626 1623 1618 1612 1607 1604 1603 1601 1602 1596 1607 1615 1615 1618 1618 1619 1617 1616 1606 1606 1611 1614 1617 1618 1616 1622 1619 1613 1618 1619 1624 1629 1637 1646 1650 1644 1652 1652 1656 1662 1661 1658 1657 1667 1673 1677 1677 1676 1677 1677 1673 1667 1660 1651 1643 1633 1631 1635 1637 1642 1645 1651 1668 1673 1674 1681 1671 1658 1694 1720 1739 1760 1779 1816 1850 1884 1920 1967 2020 2081 2147
1703 1693 1687 1690 1693 1692 1682 1668 1664 1667 1665 1670 1671 1661 1662 1657 1646 1631 1625 1624 1623 1621 1616 1608 1602 1601 1600 1599 1596 1602 1613 1614 1616 1617 1618 1615 1613 1610 1600 1606 1606 1609 1612 1611 1613 1617 1601 1612 1612 1611 1613 1620 1627 1636 1641 1645 1650 1656 1658 1660 1665 1664 1670 1677 1681 1682 1680 1681 1684 1684 1681 1677 1665 1653 1642 1631 1630 1633 1637 1638 1643 1657 1664 1667 1672 1653 1661 1692 1720 1745 1774 1803 1811 1852 1905 1948 1985 2022 2069 2126
1693 1685 1676 1675 1678 1678 1672 1665 1658 1658 1659 1660 1659 1658 1653 1647 1640 1628 1623 1621 1620 1618 1614 1612 1605 1599 1597 1597 1596 1588 1608 1613 1614 1613 1613 1611 1609 1606 1603 1597 1597 1603 1608 1608 1603 1609 1586 1597 1611 1611 1611 1614 1621 1630 1638 1639 1645 1651 1653 1657 1664 1667 1670 1676 1680 1686 1687 1687 1687 1693 1693 1692 1684 1670 1654 1636 1629 1632 1634 1635 1639 1650 1657 1664 1668 1642 1661 1687 1716 1744 1776 1820 1827 1855 1914 1974 2032 2074 2101 2120
1681 1677 1668 1663 1663 1662 1661 1657 1652 1649 1651 1650 1647 1643 1642 1640 1632 1625 1621 1614 1612 1610 1608 1605 1605 1596 1594 1593 1594 1588 1593 1605 1607 1609 1610 1604 1600 1599 1597 1589 1596 1598 1597 1596 1599 1600 1580 1593 1608 1611 1612 1615 1622 1625 1629 1637 1640 1644 1648 1653 1659 1664 1670 1674 1680 1687 1691 1693 1697 1703 1704 1705 1703 1690 1670 1647 1633 1629 1630 1629 1635 1644 1649 1663 1665 1629 1659 1676 1698 1732 1766 1801 1826 1842 1898 1962 2024 2064 2057 2076
1664 1662 1658 1653 1651 1652 1652 1649 1648 1647 1642 1640 1639 1632 1629 1631 1628 1625 1618 1608 1604 1602 1601 1599 1596 1596 1591 1591 1591 1589 1584 1600 1599 1599 1599 1595 1592 1591 1592 1588 1594 1592 1589 1582 1592 1587 1586 1584 1596 1607 1611 1613 1618 1613 1624 1629 1633 1638 1644 1649 1653 1658 1664 1671 1678 1684 1690 1694 1699 1707 1715 1718 1718 1712 1687 1662 1643 1630 1626 1626 1629 1637 1643 1653 1658 1639 1657 1670 1687 1719 1751 1788 1817 1832 1884 1940 1994 2013 1994 2042
1648 1650 1647 1646 1644 1645 1645 1644 1644 1643 1640 1635 1629 1624 1620 1619 1626 1626 1614 1604 1598 1596 1595 1596 1597 1598 1592 1589 1589 1587 1585 1594 1592 1589 1587 1587 1585 1586 1586 1586 1586 1583 1582 1577 1575 1576 1576 1570 1581 1592 1604 1607 1614 1609 1613 1623 1627 1632 1640 1644 1648 1653 1658 1665 1673 1680 1685 1690 1693 1699 1711 1718 1725 1720 1698 1673 1657 1641 1630 1624 1622 1630 1641 1647 1653 1634 1650 1667 1681 1705 1735 1770 1822 1812 1857 1905 1945 1948 1956 2009
1639 1638 1639 1641 1640 1639 1640 1639 1638 1637 1636 1630 1625 1620 1616 1617 1627 1627 1613 1602 1594 1590 1591 1596 1601 1599 1600 1588 1586 1585 1584 1578 1580 1589 1580 1574 1576 1573 1572 1572 1571 1570 1569 1569 1567 1570 1568 1566 1568 1570 1583 1593 1602 1602 1598 1613 1618 1625 1631 1637 1642 1648 1649 1655 1665 1674 1682 1688 1696 1699 1703 1718 1726 1724 1707 1683 1666 1651 1637 1625 1628 1625 1638 1644 1651 1623 1641 1660 1670 1690 1721 1755 1795 1802 1822 1863 1885 1891 1932 1962
1637 1634 1632 1632 1635 1632 1631 1631 1630 1626 1624 1620 1621 1616 1610 1617 1623 1627 1614 1601 1591 1585 1586 1593 1597 1598 1595 1586 1584 1583 1584 1580 1578 1577 1575 1571 1569 1568 1565 1563 1563 1564 1564 1565 1565 1568 1567 1565 1565 1562 1565 1569 1573 1576 1587 1593 1597 1611 1615 1622 1628 1634 1634 1641 1656 1666 1677 1685 1692 1700 1710 1725 1735 1736 1722 1699 1676 1659 1644 1634 1636 1636 1622 1631 1642 1617 1637 1651 1661 1676 1705 1737 1763 1804 1801 1824 1839 1858 1905 1895
1641 1643 1635 1632 1628 1628 1627 1624 1621 1615 1613 1611 1611 1606 1606 1608 1611 1612 1607 1600 1593 1582 1579 1585 1590 1592 1588 1581 1582 1582 1580 1578 1577 1576 1575 1572 1569 1567 1564 1562 1560 1560 1560 1564 1565 1567 1566 1564 1564 1563 1561 1557 1555 1558 1565 1563 1573 1585 1593 1601 1609 1611 1616 1631 1644 1653 1666 1678 1685 1693 1705 1716 1726 1738 1739 1723 1699 1677 1655 1642 1637 1631 1625 1637 1641 1607 1642 1650 1663 1672 1695 1722 1746 1785 1806 1781 1798 1831 1832 1824
